8.056908561415900749e+01 4.872502234530931986e+01 2.832496205136358824e+01
3.457677807748582577e+00 8.111803230326198388e+01 7.423120658008473072e+01
5.180391981742510410e+01 6.266851181023081807e+01 3.612893569463482280e+00
8.947525999731792012e+01 6.858557387002591099e+01 4.118916576346094160e+01
9.352649922229419133e+01 2.326248200957515877e+01 6.974979140434311375e+01
8.092799504946395928e+01 2.798869909469976491e+01 3.230167375250098871e+01
9.440837020960736936e+01 1.985563166854871042e+01 8.319227818730827551e+01
6.822568703545699975e+01 6.727806231558723482e+01 9.822451163281436948e+01
9.603727269469376893e+01 5.241300965787864641e+00 2.314952304623814072e+01
3.887385220729034785e+01 3.630506730464585274e+01 8.281946362667612505e+01
3.482398142705904576e+01 7.592720361426498243e+01 6.058838238761786954e+01
8.918757473710503092e+00 9.075331838154933450e+01 1.659925327291427166e+01
6.710365145856520996e+01 8.730601024614617245e+01 9.178693807004620453e+01
9.046121436817161054e+01 8.015139252826348581e+01 4.294390851339028359e+01
9.767378257033922750e+01 7.358285802393336894e+01 3.486102551631253821e+00
9.692867192770430051e+01 8.593138999060980154e+01 9.352041488647196843e+01
3.444798728587027625e+01 6.275425610381808639e+01 7.043456230347069891e+01
5.456576395079954978e+01 9.811748704473342286e+01 2.390927489259305716e+01
5.715040768742900923e+01 4.061536211691918652e+01 3.511408254358983072e+00
7.396715567615115106e+01 3.427227262777954309e+00 2.862808535249494923e+01
7.045042247093553556e+01 5.727907429774838732e+01 7.987836058126075045e+01
4.094371145097434805e+01 7.690285946883267343e+01 2.905770252227871708e+01
6.219727200862735117e+00 9.195324170490654581e+01 5.480484119547941191e+01
1.054186003851875775e+01 9.732519316597334580e+01 4.815490152987968031e+01
7.443085953655968012e+01 7.235406359781893570e+01 4.893364261680016369e+01
1.463027712151117044e+01 8.544924290654842025e+01 8.860807929905548974e+01
5.813663009886029442e+01 2.498318230647508287e+01 3.385559208392538011e+01
7.768672998756485981e+01 6.264208598398703032e+01 1.246360794645489101e+01
9.147534505983769293e+01 2.331454362258143931e+01 2.717660240501496105e+01
9.271387061420273312e+01 2.698429043695531604e+01 4.116762357854932475e+01
5.655043395460085520e+01 2.643345123117606477e+01 6.715121877768753222e+01
5.921233270797499415e+01 6.942397290512593599e+01 3.368030817761161444e+01
1.626892363176533252e+01 3.770612600923571023e+01 8.772343487886291769e+01
1.348668928351698426e+01 6.942238426864398093e+01 8.245122907366317122e+01
3.609511127262130259e+01 3.983169807361262116e+01 5.502419156907010489e+01
8.573381731094787028e+01 5.041318539111272479e+00 3.159657048637044596e+01
4.441538735183625519e+00 2.603799276806882901e+01 3.080511317762908519e+01
5.386366201165775180e+01 6.404148742826417617e+01 8.871243140479072053e+01
6.167819141628942958e+01 9.226441092227672414e+01 9.158640913194395239e+01
7.628650165891673396e+01 8.092845974187919467e+01 5.333944595664537047e+01
1.929642084351196374e+01 7.051911727728365520e+01 4.082494185349678872e+01
6.617190570209315581e+01 1.008266455504308645e+01 4.944621167471380119e+01
9.294667181863887606e+01 9.913575831286351558e+01 4.621543357010214947e+01
7.379984646460340514e+01 1.327821338377333049e+01 5.749845037644701762e+01
2.268813877964129944e+01 6.083605144201353454e+00 7.425730015698162845e+01
4.644300188448934108e+01 6.521296083617687600e+01 9.454253709860638288e-01
5.467858853691809351e+00 1.426158178531716736e+01 8.224849784651489415e+01
5.106052596322307124e+01 8.138080369624162813e+01 1.716177347086197358e+01
8.417490129325777559e+01 6.702315241547496782e+01 8.232343043853767028e+01
9.229225555333518116e+01 7.979212801370427144e+01 2.035757133817385167e+01
9.316691052253727889e+01 4.036416999633938474e+01 4.778636491174508194e+01
5.004499041807179083e+01 5.277889162037471493e+01 8.913384194855547094e+01
2.147417582806671987e+01 7.948483345298890868e+01 5.559220133163651667e+01
2.221035046442485594e+01 3.510403071209541537e+01 8.226627975063917120e+01
1.429780051313638367e+01 3.818297935915060393e+00 4.927720268113374402e+01
7.837307803485093416e+01 5.120388601393890582e+01 8.381940702486872397e+01
7.296533761087324876e+01 1.822992081630392391e-02 2.853039815576556748e+01
1.740966351373577226e+01 7.935556268836552185e+00 8.207140516883426073e+01
3.615376966436202366e+01 5.073926753706747839e+00 7.371887168318477279e+01
3.470469168581602482e+00 8.521669185299229810e+01 1.372247362979940277e+01
2.245317554605904675e+01 2.884090838817323643e+01 4.463261932732906700e+01
9.773214560270763229e+01 8.125446712876915001e+00 4.328261782616802122e+01
6.301514970121674253e+01 9.622204083528872331e+01 6.003727823210345349e+01
7.272285001740981158e+01 6.589964188069524198e+01 7.254593374490073643e+01
7.072308305341738333e+01 9.541005735834517054e+00 9.173325954989637410e+01
5.908126722951128329e+01 2.786563779189402723e+01 9.400845349135458662e+01
4.269849964092243511e+01 8.111700858948937309e+01 1.686024078490988565e+00
7.500393363152225845e+01 6.922647023886796092e+01 2.024771627267538676e+01
2.776542217246842270e+01 5.542420117513047018e+01 1.647413931130282805e+01
6.147685293196629885e+01 9.193492496047153395e+01 2.510650377145561407e+01
3.420519127370058587e+00 5.906315477328657693e+01 5.696688998243067914e+01
8.504052816914741797e+00 1.530142391309394867e+01 5.569469687541083402e+01
1.410484578781201392e+01 8.902334472349760830e+00 7.432468548631431915e+00
6.927955276984772581e+01 3.438548974320212182e+01 5.757483195600373449e+01
2.722037289844615415e+01 8.881893860144384689e+01 8.333461044464939960e+01
3.523143462360156519e-01 7.747740699664610986e+01 8.582028758821448378e+01
8.356290559850453548e+00 7.801819664303022250e+01 9.090478834179793743e-01
3.931652599622699285e+01 6.133186960769676688e+01 6.309255473324905239e+01
8.029993239142328321e+01 8.339642653704331110e+01 7.104382761017755854e+01
3.989705976355138972e+01 4.462353138837781330e+01 3.592523338613881378e+01
9.457603870250641975e+00 8.988357858632352304e+01 1.709038867002954376e+01
1.699512481994941382e+01 9.371114249775301630e+01 6.319052726849810853e+01
7.852057248656771549e+01 7.630753269371159320e+01 8.629886690660146087e+01
5.287970273103911012e+01 2.434633446126816025e+01 6.049462573114107045e+01
2.739784307470695168e+01 4.995087327473076755e+01 3.024236472548004073e+01
7.914035239211118267e+01 7.379156465097079831e+01 3.075206442231155535e+01
9.481710338318119113e+01 9.824531271276538291e+01 9.197441899925144071e+01
9.050277997552899478e+01 8.565904992145658525e+01 5.857695249526337022e+01
3.980668702704004414e+00 8.822365559193912077e+01 5.895970289576609957e+01
9.243962025795903870e+00 1.685980037739394177e+01 2.475082701403683672e+01
2.636934820372018962e+01 2.336180785363499623e+01 5.143043031026962808e+01
2.637116141345168074e+01 8.572723330246002149e+01 4.060262330443163847e+01
2.479414865757194519e+01 4.132824576201709732e+00 7.698180928133811562e+01
7.226365924727606860e+00 7.353572427089385144e+01 3.500694571373974640e+01
6.506008559874301511e+01 1.491328026212585023e+01 5.341112921007186287e+01
3.866790380192063026e+01 4.730464713008380073e+01 6.812568542818986828e+01
6.776217402080542129e+00 8.642303998763640038e+01 2.403625124445324346e+01
8.417971191858379143e+01 6.958198859817026971e+01 9.889430496087747713e+01
4.898711223528317049e+01 7.841844349283466897e+01 9.640576348651370608e+01
1.197411338486020771e+00 7.882400864388388584e+01 7.527661739061190360e+01
6.008659314607419333e+01 8.405351967217640663e+01 4.645786180743915139e+01
4.621902117589341685e+01 6.196214861125448614e+00 3.691859321956785323e+01
2.298093427788677801e+01 7.837137375586922872e+01 3.041833835914234996e+01
7.834439039485494050e+01 2.403406315765179713e+01 2.456944985347377752e+01
9.551449698191059667e+01 4.566509558442844963e+01 2.049755880208324754e+01
3.893580827245812515e+01 3.864705918326445300e+01 4.289756509496784531e+01
7.923172264508606588e+01 8.579878631370508657e+00 6.023265013762370046e+01
5.959769967028344695e+01 5.577841822699410557e+01 1.143305451291263353e+01
5.406035693464592384e+01 6.452631022035100727e+01 8.664581096622070433e+00
2.580143191232338040e+01 6.529041809406335517e+01 7.353958940236770658e+00
1.383742321978249734e+01 4.002267487699617732e+01 1.698712376336085583e+01
7.972202205811737485e+01 2.914172852772307465e+01 2.857140315516124573e+01
3.670533264243848492e+01 4.956121982373101531e+01 9.839526238927182078e+01
3.029822264112076624e+01 3.311728874087729224e+01 6.381859168345583200e+00
8.646144250393015795e+01 6.507934021145446479e+01 3.269561327728336408e+01
5.118410248086107117e+01 7.893796405394614624e+01 5.675195695450754130e+01
7.997454866245436733e+01 5.586154923996614485e+01 7.447774105161758484e+01
5.248811008701025571e+01 2.448800725451049232e+01 3.648530751532828020e+01
7.840505109327330047e+01 2.594435632728334795e+01 3.084539852619362321e+01
6.763359168627603424e+01 7.499450548012954698e+01 3.378559329670309808e+01
7.141559016167536811e+01 5.685924332108073997e+01 6.117906925307069343e+01
1.378526642487702958e+01 2.601874971648177048e+00 6.935252497373319613e+01
5.402269872087966007e+01 3.365711424846261934e+01 8.728784567214264989e-01
4.827254946645896894e+01 6.528331125754016639e-01 5.628608766986675960e+01
8.329950031728761140e-01 5.025511773299533758e+01 1.317697660407116622e+01
6.148317058209246255e+01 6.000654670018305126e+01 9.773304654934408120e+01
1.798518584018816568e+01 1.400911402695503849e+00 7.123384467577615453e+01
8.115683431884886545e+01 3.186759411293321875e+01 1.409896558221387330e+01
3.857047521998114803e+01 8.980242591397448848e+01 3.517584079717479284e+01
3.190328754358506824e+00 2.497467831428579199e+00 4.811903146042618573e+01
8.225503005773910559e+01 4.560016860683548146e+01 9.047984513598834155e+01
5.359730295105726583e+01 8.575097927651331986e+01 4.839577313460971197e+01
1.864520555856675799e+01 3.404824468631685619e+01 6.527300575473769584e+01
5.591853854639994381e+01 8.661645460431442700e+01 5.528072298866323564e+01
2.992695377262744039e+00 6.857258727504977891e-01 3.372869702547436077e+01
4.602468661754299717e+01 5.815974320394033725e+01 2.800436271431981794e+01
3.314710621462123896e+01 3.029843233604703201e+01 8.941406480402406487e+01
5.885635004985739727e+01 6.828189500289938429e+00 9.641935382142975186e+01
6.003077028190668329e+01 3.773995826071646320e+01 6.637911018154514409e+01
3.389213337673716353e+01 2.701673127321743095e+01 5.755453829119446851e+01
4.024623724299220839e+01 5.155660515459059567e+00 3.550794016310059220e+01
7.265846460854442057e+01 4.556162962360809843e+01 5.182875113082317853e+01
6.500922227627960126e+01 4.095826872470937730e+01 9.331042616723694394e+00
3.331377591379389713e+01 8.925262260238210388e+01 7.236942258380862825e+01
5.429105353009078527e+01 9.464353647395111579e+01 1.584613006531904134e+01
5.046168272293325430e+01 7.428272786187919507e+01 7.552386478469237829e+01
6.843588045449629931e+01 8.024868962460839583e+00 2.323048509431724540e+01
1.963609156226526764e+01 5.175267999353988557e+01 1.193282589413067285e+01
2.302687027539419518e+01 4.517444179425486084e+01 1.935009432018686137e+00
6.013524416599024391e+01 2.447442410227517229e+01 1.820839110567235153e+01
9.828366831168973761e+01 5.475496060035131052e+01 3.816155567745946797e+01
3.558253909336963261e+01 2.215334262244180863e+01 8.669844556114651368e+01
6.965592335687593106e+01 3.734048185455486646e+01 7.173408279491523842e+01
9.845853299332561903e+01 2.799111181297558915e+01 6.147629785826887172e+01
6.296624986464885154e+01 3.131738700303702316e+01 6.424440508172573061e+01
4.302607628515453086e+00 4.728553921133124049e+01 2.327456073644511747e+01
1.696013491081406244e+01 4.605276078203799273e+01 1.656679884283135351e+01
3.907281218439122483e+01 4.808645981766687072e+01 5.638096400202650926e+01
5.983346437995140654e-01 4.533152511713511501e+01 8.293644933016742016e+01
4.928359887273110473e+01 9.074753749352815646e+00 8.773765267694896863e+01
1.522303060801938379e+01 5.385272987699847391e+01 1.006854100011067565e+01
6.938571140561070649e+01 2.605849534773937393e+01 9.718080659566227553e+01
6.692186139290534186e+01 1.081702640161764606e+01 3.812669436473760243e+01
4.842033935020744195e+01 1.910396282866686590e+01 9.077127990966634741e+01
5.239491161681881692e+01 4.703334493202049771e+00 4.521557123430594061e+01
4.634300710884600250e+01 6.694306146474261254e+01 5.525016869801297759e+01
5.753956942873721658e+01 7.461755722329056084e+01 7.655883732449235879e+01
1.331098520614238900e+01 2.890361147306663625e+01 6.353674890504200334e+01
8.132178146012405762e+01 8.082520243459342169e+01 9.916085134562514725e+01
4.134092890408479803e+01 3.628470775181956753e+01 8.955879225793665910e+01
3.213211576627897159e+01 4.552317784732608175e+01 7.877218337398110748e+01
4.962914080984459986e+01 2.245768591283302484e+01 7.942775365440390090e+01
6.668025818223321721e+01 2.614957073951346089e+01 7.811425880947227540e+01
1.611090567386360561e+01 3.908656996789216009e+01 5.028275644058452798e+01
7.013990424642653920e+01 4.846033828725334303e+01 9.402448512763818655e+01
9.678740538594865939e+01 1.993728377763957127e+01 7.162971140266733983e+01
7.854059600425500776e+01 3.260708584497614737e+01 9.488647456834014804e+01
5.066231045242886211e+01 2.969216539297442381e+01 4.181571696451423747e+01
5.377913662650076532e+01 6.167779837756307870e+01 1.713050297852450754e+01
2.012850258246701074e+01 9.270457955844858589e+01 5.901172748757312547e+01
7.065882137833871468e+01 2.421728116869709169e+01 9.718945871547344950e+01
2.684618686114979980e+01 1.075436459467960049e+01 8.146873430698229868e+01
7.048763067350036238e+01 6.463602715731360604e+01 2.710266921661680328e+01
2.975298292667927225e+00 5.488372827300349854e+01 5.885746849594654861e+01
2.367464954088838169e+00 9.491099870582920062e+01 1.972664437001556692e+01
6.041436969795617529e+01 4.565632624527616912e+01 2.773242723604655424e+01
8.739952772791367863e+01 8.888482745814923192e+01 1.783528728320259304e+01
9.323621222802314890e+01 2.333061567149907756e+00 4.286833855575128638e+01
1.809148160679508877e+01 6.410253463106984739e+00 1.126763265523669233e+01
9.089537994008216515e+01 8.943003673002729670e+01 5.976901416252370325e+01
2.868667189002702855e+01 2.211460119962424997e+01 6.126636781842450574e+01
9.090033191085926489e+01 1.282719489111070388e+01 5.419372551765743395e+01
3.565243297721109883e+01 5.518480682393040126e+01 6.115673879290365278e+01
9.793248137312254187e+01 1.385599150863025031e+01 9.642094333717903964e+01
9.740598334867246422e+01 2.474007843128224238e+01 2.435064840308200829e+01
6.326530014402553803e+00 9.710457229678514324e+00 7.552174999253735166e+01
4.078636713144599923e+01 2.217417649896334808e+01 7.792749213073313364e+00
6.417047646097557845e+01 4.445693143481253173e+01 1.464402834282864063e+01
1.541868161728304720e+01 1.568283120866320601e-01 4.657449621389275762e+01
2.343497809751160510e+00 1.816641714458653212e+01 2.487714037465841344e+01
5.225733154991403495e+01 7.349019504512217793e+01 2.103816467476890040e+01
8.922371904822554711e+01 7.673941526068959718e+01 8.680294080536322099e+01
8.512124698790337618e+01 3.334390043175991991e+01 3.235176745089426475e+01
5.190069549653541614e+00 7.475963657443456611e+01 1.699407450671808206e+00
6.620734188176338364e+01 8.133531746189792955e+01 9.543522774257647256e+01
8.270565727022794533e+01 8.141087398749890269e+01 8.918447603985299565e+01
4.184107754766602483e+01 7.158425151687686139e+01 9.103269270943965807e+01
5.418771434406788501e+01 6.061871137076836646e+01 3.090628693118724346e+00
9.239234380327050644e+01 2.587575680102309761e+01 4.041529027912469019e+01
6.321292416187890240e+01 6.604608882456751928e+01 6.604392325201122560e+01
4.781561239388015849e+01 1.446670269149827881e+01 9.953013790476978784e+01
7.411375445590471145e+01 5.347794508215497444e+01 2.660348641940807468e+01
9.831826758195178684e+01 7.595133191418025831e+01 2.756763860287990653e+01
4.030987400099236595e+01 2.960336056749143196e+01 5.634459016188360181e+01
4.058645242831771327e+01 1.060026020181052964e+01 4.230675488775064252e+01
1.705945020165333670e+00 1.905160737930422510e+00 3.718133031718672044e+01
4.923770209170248791e+01 2.763174724964500939e+01 6.659549227519133296e+01
8.825185678431742531e+01 7.736542432626006871e+01 5.835052982082695650e+01
6.601666629771659700e+01 6.610719357359063508e+01 6.342387459609399869e+00
9.003124572083576638e+00 9.405857091062506470e+01 4.926474582816538828e+01
8.408800095431969623e+01 5.740895771434627903e+01 5.222329159348861083e+01
1.694737710177297529e+01 5.707962028002523169e+01 8.480598260632058327e+01
5.519412483138864900e+01 1.950558441182579372e+01 9.974805584602395925e+01
2.172352907092666285e+01 2.095614846540381393e+01 6.853923310778951361e+01
9.292872645820719413e+01 4.071055663024180760e+00 1.157587892027364163e+01
3.564636213207368343e+01 1.906618683104912648e+01 8.828542325234767674e+00
9.887502894888082494e+01 5.972020688639724995e+01 7.915663400144404704e+01
3.562015265757624150e+01 6.494659401432278401e+01 1.508658629875780921e+00
2.210464801847946603e+01 9.075855459971464256e+01 6.266121267033718567e+01
1.232913198948902789e+01 2.258251849381249698e+01 3.850858503415749112e+01
7.487606654780877591e+01 7.195111113807735137e+01 1.158000115698429866e+01
5.643647918079364167e+00 3.985320787760170447e+01 7.648790588630643583e+01
9.635346727898480879e+01 3.305525905066906489e+01 5.187868745913494450e+01
7.327934114624615347e+01 4.630522573054590652e+01 2.319449627344765119e+01
9.598764877590491551e+01 9.354022060010028383e+01 5.948864171145040736e+00
1.009427548975273581e+01 3.029945464131552768e+01 7.858310221390702566e+01
9.788866628753493160e+01 5.981027017317745731e+01 7.641306398734585059e+01
8.186144482829521962e+01 5.549077151430065413e+01 5.758831744735682889e+01
6.691879725417017255e+01 8.103713469741195752e+01 6.783789506019097360e+01
6.311509837800157641e+01 7.216276218445220536e+01 3.139749374200413357e+01
9.265503828607786829e+01 9.525882059247082623e+01 6.651458946397055172e+01
3.012294935237731508e+01 2.726185746765710149e+01 7.493159219293268336e+01
2.117275557451436896e+01 9.756879303833278527e+01 1.242825591123384399e+01
6.360105667634139337e+01 3.483607498389648072e+01 4.787155024543027082e+01
6.960728459247478384e+01 6.914388033648977228e+01 3.828221217350114003e+00
3.958179563810916335e+01 5.814802484389041126e+01 2.220940285520000046e+01
8.752206579476202819e+01 6.124007536631855686e+01 2.194441590530663433e+01
4.433711345994159103e+01 6.512644113520288158e+01 3.497349908155504750e+01
4.372674247626681421e+01 8.003182580507339594e+01 2.577581228879137853e+01
6.439026351258489456e+01 5.864410503669744656e+01 5.393015013051925877e+01
6.299998850614879586e+01 1.045778549426136195e+01 6.290064119845609980e+01
9.251067529146193635e+01 6.762824880282359175e+01 5.616756925465193007e+01
4.739688273615206171e+00 7.664715769539304802e+01 9.127981630320589090e+01
9.806761774977412927e+01 5.928021622606582497e+00 3.055538456856119467e+01
1.291650768051830767e+01 7.172306072095160800e+01 7.347543783829235053e+01
9.556158676731989488e+01 8.081438523949812236e+01 6.451927161741852501e+01
8.247685945836431642e+01 8.482393596266210523e+01 4.496920589990498485e+01
7.396756359820024329e+01 5.341179648410447101e+01 8.052453934149365011e+01
7.211019580032387921e+01 9.550022638296093191e+01 9.911065107535770835e+01
2.113942241469305472e+01 4.730230956369313589e+01 8.677823112074919720e+01
6.170943996908042806e+01 9.464712538128060260e+01 2.146443062716688743e+01
7.764031887375962526e+01 1.865265192499084890e+01 8.665303745442475503e+00
2.505846598937196035e+01 2.665893098461070565e+01 8.976497734303838172e+01
8.348746140073885158e+01 4.286317455633876961e+01 9.632044905490765530e+01
4.459443335338482939e+01 4.702707498566839206e+01 4.735577391938669933e+01
9.341355816736776774e+01 5.902469701136823232e+01 1.534770391735646911e+01
5.257665610837901937e+01 6.683365392928193671e+01 2.389487619125021212e+01
4.456804775168920685e+01 1.404385466640678537e+01 1.831162510654558062e+01
5.122639137508662088e+01 2.482812347967047373e+01 8.259502285322618320e+01
8.092563097143563766e+01 6.825081162503026633e+01 6.503774583621559202e+01
1.534353356636860610e+01 8.656533181045020342e+01 6.887239991829108021e+01
2.776626424202925847e+01 8.004200842588777220e+01 3.771397351707621226e+01
1.957350905479745506e+01 5.670091329098178790e+01 1.634958815880716010e-01
1.184141611761614321e+01 1.470749450118934476e+01 5.624519511310187880e+01
6.831694813654858933e+01 8.472955174681726476e+01 4.469024448226465296e+01
4.692531223673216090e+01 6.696217915809693011e+01 2.824736436433161746e+00
1.467307888098400248e+01 5.116561953444024624e+01 6.621863546879137630e+01
9.730852639603676835e+01 2.188896492002240279e+01 2.919848689389151630e+01
4.723901731623827516e+01 5.323934196365291172e+01 8.726271417101455086e+01
2.663974475384307539e+01 3.832563019284060601e+01 9.261883653293394048e+01
6.944071568040418185e+01 9.106096881888539940e+01 4.049431478987695243e+01
1.247118934540011281e+01 2.138126161645381718e+00 3.848088488221957704e+01
3.976263556312091652e+01 1.770209932054254054e+01 5.043352302336062820e+01
8.729201114924261162e+01 9.908435849974847542e+01 6.142081443314513223e+01
4.766007192756974575e+01 9.675960652710190857e+01 4.800635586163224389e+01
4.379238411317763990e+01 9.444992718406204801e+01 8.101167251054417306e+01
6.995206847425745877e+01 4.075669296283298593e+01 2.098655272154847928e+00
9.031398728088149142e+01 1.515492579350041780e+00 4.101440648796240040e+00
1.128419274719262333e+01 7.023954056768408805e+01 9.160197588950245517e+01
5.785058866194463434e+01 2.635739961093430850e+01 1.643456023892311180e+01
5.427187010756987462e+01 5.263984228142243182e+01 2.490794682403704030e+01
3.989094973135174627e+01 5.754223324560508956e+01 1.233510712492532591e+01
2.967261771806733961e+01 3.216765844769638960e+01 6.024274648244040264e+01
7.052308508632178530e+01 4.988810944633730315e+01 1.886740618490696519e+01
3.401977231333304985e+01 2.699102386573818535e+01 7.251532692986518214e+01
9.089727149624015112e+01 3.943486139147032077e+01 6.991283121115448296e+01
9.572690191100015511e+01 9.046506830688248613e+01 9.208388115671705521e+01
3.544304239429308723e+01 3.130594083984119536e+01 8.418171792204086046e+01
1.190329474133019438e+01 5.741116101352439216e+01 3.906513210827655680e+00
6.666400653997203563e+01 9.053572581389805407e+01 8.373195523747966718e+00
4.911316049508953796e+01 1.879118578047779309e+01 3.690852224320673258e+01
9.763483106746322449e+01 7.600029404995119364e+01 9.766020745479963239e+01
1.205105752074172543e+01 4.227592121736769570e+01 4.111365966633170643e+01
5.296562179445406571e+01 8.652257466005137587e+01 8.550571103088721259e+00
9.451218431973012457e+01 1.967920767240571855e+00 2.844701023703258969e+01
2.415672746734966836e+01 8.554166519299187144e+01 6.102009281675613295e+01
8.250183649216896242e+01 2.940837245757446183e+01 4.100725295018003536e+00
3.036777209370219310e+01 9.846748822765601972e+01 4.205639601350654999e+01
2.058834950029485711e+01 5.653369060633457366e+01 7.792127691803607092e+01
6.944919926410011612e+01 8.749257215832399481e+01 3.159118477587720264e+01
6.269879881991124648e+01 6.313575046258402779e+01 5.256867130776585384e+01
1.250322735932488705e+01 6.519450247031541323e+01 9.428794439257939075e+01
7.319656232296894416e+01 4.088616711880017363e+01 1.038451351954192603e+01
6.833160646443822372e+01 1.766662493954153135e+01 9.197957986216172799e+01
6.901538719841370551e+01 8.007324368299040884e+01 2.064514559755036416e+01
7.805130202361299396e+00 1.848786048566897122e+01 2.211337948352209981e+00
8.589135040652662667e+01 4.423230299602101923e+01 9.876381340510528162e+01
4.530711450533875251e+00 2.377633147024538207e+00 1.537655974172194107e+01
2.027241683520701798e+01 7.033726017517510343e+01 9.830072281157899283e+01
6.913618704304387563e+01 3.718431075230189720e+01 9.683558861547302854e+01
7.192020692911826885e+00 2.209763114667138240e+01 5.798262832324518001e+01
4.272492459788098529e+01 6.920890964091657338e+01 7.059734419495367774e+01
5.909764587692127691e+01 2.523327096986762541e+01 2.303638558923737367e+00
9.639944506523751500e+01 6.675182898880201776e+01 5.650532850967501020e+01
4.805883460474694857e+01 3.519729446958588426e+01 5.012807405323831489e+01
9.144653075966841982e+01 8.677554852265150487e+01 6.809844185426268837e+01
7.884146518500743639e+01 1.279806995088461630e+00 1.630091603912425668e+01
7.696995211909506907e+01 7.719116168269813727e+01 3.568114213795156786e+01
2.602964968999029693e+01 5.605819273972014827e+01 6.408825392313652003e+01
7.067895484945800888e+01 5.744257249506682683e+01 8.884793864656693074e+00
3.690342335977467059e+01 9.732895395417456541e+01 5.858534357366177403e+01
3.446562974062550211e+01 6.715995306983548119e+01 4.044886111160990083e+01
4.904182408523174530e+01 5.149981252726036018e+01 9.256051532640884716e+01
6.470043185602095548e+01 5.556775249782597292e+00 1.151482682427188386e+01
4.419194279217495591e+01 8.486976282209613487e+01 1.660615278718533716e+01
7.333854334167034139e+00 5.949789085776863118e+01 3.582733654060744755e+01
6.545132369170314490e+00 7.592212387929073714e+01 1.133114681450871863e+01
4.184031732708923812e+01 4.173037338829351484e+01 3.336629025247067659e+01
8.020937478632170325e+01 4.186944605580323042e+01 6.335170993558079999e+01
2.164491787066269524e+01 8.726677653753168329e+01 7.399694854206387618e+01
1.482445914620251770e+01 7.197285521347895099e+01 7.406018674681017444e+01
3.844146823045313521e+00 2.816321826916567872e+01 7.602690230546694750e+01
2.149208976630457713e+01 2.258952195575263389e+01 8.327960325597683777e+01
1.022757259735684876e+01 1.643920234379210399e+01 9.175328267661950576e+01
9.550861870106209039e+01 9.605919477956568642e+01 4.729515367806536474e+00
4.109821649928350951e+01 8.858697459973544142e+01 9.309332166141304299e+01
6.387789521757769151e+00 3.082067913031256623e+01 4.119263423609983477e+01
4.666827863699016632e+01 7.444461175610517500e+01 2.689189531013651546e+01
2.110360183103196974e+01 4.638900168389753276e+01 9.919390990205000946e+01
7.843625419471520388e+01 1.691644357150345890e+00 5.280438538492312261e+01
5.245367150732411687e+01 8.420295112286159167e+01 9.093879292081973631e+01
2.806207847997665983e+00 6.229628385063165297e+01 6.959565877381557186e+00
1.357546752440796922e+00 3.486115308920707889e+01 9.470374476995411328e+01
1.612112158971464737e+01 9.991273229779454823e+01 4.639496671955788543e+01
3.867298393369333898e+00 9.500652167147349303e+01 7.254803597844157537e+01
1.617443734892354268e+00 2.649421793649216994e+01 8.103954733143550015e+01
6.634219135464502415e+01 3.393629186832253453e+01 2.531000492825501524e+01
9.542354000604980513e+01 7.861413452094882359e+01 7.320430764600961027e+01
1.349482504663479432e+01 4.821289749711328199e+01 8.244958502809531353e+01
2.503780977540221997e+01 8.193240043112319881e+01 4.607727660616913568e+01
1.122956117887220451e+01 8.273372865346421179e+01 6.189487829079592984e+01
8.749227994525269025e+01 8.407300507764796293e+01 1.120277967650654638e+01
8.555694841430174336e+01 6.859999548883236287e+01 6.223705226811085822e+01
2.105438711801218687e+01 7.596769768399390443e+01 6.837661470982368428e+01
5.754374711778250884e+01 5.776101674456229063e+01 2.285667361465588598e+01
4.907981821847084802e+01 8.090399795456785625e+01 5.871810938844368444e-01
5.051848797403189195e+01 9.652405380079085262e+01 6.699020328414808034e+01
1.310633887925072294e+00 6.144703555753373792e+01 3.434723840272251039e+01
6.806674034131631856e+01 4.040095828651125487e+01 5.921503673303046611e+01
7.172697270460436414e+01 4.346484271626209761e+01 7.277850253618389331e+01
9.173935068867017151e+01 7.717727068784387257e+01 6.896500156224805167e+00
8.793075408595120734e+01 1.466501187132662665e+01 2.116445042092475148e+01
8.662642694611682259e+01 4.995726471139831659e+01 3.204525336728589480e+01
6.819922825871232419e+01 7.071635469393558537e+01 7.165780339803778531e+01
4.607541847209392927e+01 6.271410926828750831e+01 5.664148268405373443e+01
6.605159758299343764e+01 6.841048487166351322e+01 1.811268525766335102e+01
8.476031034203255388e+01 3.860641150674790367e+01 9.562044274957349899e+01
3.543481521261590217e+01 8.804781689864816485e+01 2.558707015283516739e+01
1.630574458540407079e+01 7.921895670800010691e+01 8.390821087144162860e+00
3.237440788896995514e+01 4.806655979649237054e+01 4.001599378143982477e+00
2.868065512117804516e+01 4.617551381915687614e+01 1.840435534949250851e+01
3.361593571654084656e+01 9.853023056003419100e+00 1.832519641539732547e+01
6.402361859487396600e+01 3.228833978191294563e+01 9.416804525624988287e+01
4.672804544516588976e+01 5.979931173120939292e+01 4.927337909871836530e+01
7.084567122353550417e+01 7.737330683199166970e+01 9.563172494815127322e+01
2.382967286372110749e+01 4.136346572546626277e+01 7.094318052223356119e+01
8.799081222954939108e+01 6.542856605612074361e+01 5.009684472969400559e+00
4.021463718740198345e+01 9.806328509239551749e+01 6.561082077976499249e+01
7.202522752935152539e+01 5.488277721889767591e+00 9.048143855805584224e+01
3.273473114104997705e+01 6.429962733446765810e+01 8.937130241317125012e+01
4.304155812512654222e+01 2.551766922829060746e+01 7.091887950816121133e+01
3.144039520002385046e+01 2.010673399645067505e+01 1.137962817824098494e+01
5.732296930164836368e+01 7.010628736685208651e+01 1.857781383687227006e+01
5.137222147258644611e+01 3.176075178194870396e+00 1.454533700369720073e+01
3.478379017706713228e+01 9.580055146215865136e+01 5.342435657380779901e+01
8.766937963305188930e+01 4.479204759632537503e+00 4.639905965835979629e+01
5.324942028427450680e+01 5.863031799473752415e+01 7.760821211568708122e+01
4.441416114235791213e+01 6.491349861951543687e+01 7.786656147741501854e+01
3.638131696310937002e+01 1.581708704748170291e+01 2.991690476538806465e+01
4.340319041419949997e+01 8.159517872981493269e+01 2.154987900657476985e+01
8.286159960424357962e+01 1.824613323358994421e+01 3.569086486287086046e+01
6.649458825682101804e+01 9.838485454076241865e+01 5.760694631831617585e+01
7.121019219975705994e+01 5.586359792496297416e+01 1.830131488965139752e+01
7.486113715716352601e+01 5.076302020347920063e+01 5.389024316993074137e+01
1.424201103378269728e+01 1.097486529168874014e+01 5.658069963048030360e+01
7.424819647665007949e+01 5.459973594072502578e+01 7.539191673405642291e+01
3.434999788201606208e+01 5.940895999820033069e+01 7.169419730930547985e+01
2.020801102729171816e+01 4.935056523635265080e+01 4.816771172940640611e+01
7.651489455073939894e+01 2.937751430961465005e+01 9.008544104988490631e+01
5.513442514052830035e+01 1.084979365038349997e+01 2.832325207640298359e+01
9.517115899405891355e+01 5.271265327079870389e+01 3.469227283492954683e+01
6.255607275862384853e-01 3.059015157861191270e+01 9.450541476737194557e+01
9.321591391844796348e+00 4.691017663954723815e+01 4.763195094087990356e+00
5.630190990636890547e+01 8.415887766471736597e+01 4.114083141444550051e+01
1.223491679752166661e+01 8.236003462145654908e+01 1.214474724560905550e+01
9.643596265290533154e+01 1.903489316666184816e+00 6.315146556573721170e+01
8.637432824522922203e+01 3.374725594640721482e+01 9.805676243988847318e+01
6.664371106174536408e+01 6.497461345834196322e+01 4.575901316209605341e+01
8.940959514713534872e+01 7.975841613115225925e+01 7.493166900916743600e+01
4.627030677874761722e+01 5.503996210186487303e+01 2.657531942508737188e+01
9.668308070556160772e+01 2.860169159300997066e+01 3.616903563203177896e+01
3.323429336414324098e+01 5.351301681906468843e+01 1.947762352182046541e+01
5.940521142842259650e+01 7.865772588841279500e+00 5.889051366582803837e+01
6.115487982130181877e+01 9.086763734081880983e+00 5.510454771034467569e+01
2.805020601762729981e+01 2.907840566062835919e+01 4.806751176106632784e+01
1.021788845355239239e+01 2.757131632783125141e+01 5.895871715797926527e+01
3.239314270205040458e+01 1.946506486606472919e+01 1.836836234641079457e+01
3.508797313540007679e+01 2.988855832504655297e+01 1.092469688098635139e+01
5.998479405224279759e+01 3.493253860313119930e+01 1.142039005642060445e+01
2.794636599927834553e+01 1.778235668865268959e+00 5.012458012984275513e+01
6.807897674285406708e+01 5.966692475754067004e+01 9.920755948188444506e+01
4.082901464916884038e+01 1.035031822802645607e+01 6.201591522490345909e+01
4.702661891484138934e+00 1.056441654095918725e+00 1.640743697114321886e+00
5.108630039214106233e+01 2.748360913425784702e-01 8.144510568285187446e+01
7.990121125242306732e+01 4.645019996283540564e+01 2.796549259807435917e+01
1.475861846161869906e+01 8.220554587953857606e+01 1.029426890803261152e+01
1.590392295855228610e+01 9.662055477327847086e+01 4.627547765261321899e+01
1.485906355870507767e+01 7.881071733405923396e+01 7.651138323195850433e+01
5.982183207111106782e+01 3.739080303516413295e+01 1.120054799548582025e+01
4.704415614115021782e+01 8.666215990048461038e+01 4.992034561374102708e+01
1.051100329303340430e+01 8.116335835860512304e+01 8.471060807106631785e+01
1.760515858786682131e+01 1.624990070245651097e+01 6.795764862507797943e+01
8.618099011689935196e+01 4.743600699691751288e+01 1.822741970544963408e+01
8.229356041363261909e+01 1.231423249313912116e+01 5.914967449465359550e+01
9.961992635558839027e+01 9.621505527121688317e+01 2.815512654671403769e+00
4.021897617386589729e+01 6.424802433916673294e+01 8.687026945343487228e+01
9.312067709259275716e+01 2.104693142867575251e+00 4.910907873736037743e+01
2.803604648417744727e+01 5.191687390896301224e+01 2.588592629616940499e+01
5.268336560320804551e+01 2.491168754624333204e+01 8.623021110428811653e+01
2.014053594359870303e+01 1.597880815217600503e+00 9.538865945970329108e+01
5.379794644880494303e+01 9.069614949103844026e+01 7.169974784077962227e+01
3.045060833601902317e+01 2.638054097038223844e+01 9.646770257960378103e+01
7.291281292088636690e+01 4.516462813468539395e+01 5.344693298748518373e+01
1.880805352929637664e+01 6.608786169391416365e+01 8.709691875532331551e+01
3.548180525014098663e+01 5.538345912148216854e+01 5.779154838525801807e+00
2.285939239317421467e+01 7.130182364320567956e+01 1.620508940101169770e+01
9.838140525598459973e+00 7.813373383178843312e+01 2.635659406028301177e+00
3.251728913630491746e+01 4.585277969532852715e+00 3.589419346380798714e+01
3.537476760017398192e+01 4.642236759792275080e+01 3.394330100490403623e+01
3.499818790805300495e+01 3.882283118749402462e+01 2.152308984285664550e+01
4.986754539310044976e+00 7.819772905124493434e+01 6.800781475583383973e-01
7.039107098252253536e+01 5.376207652825836902e+00 2.887517412317600574e+01
4.525306795855289721e+01 6.733895027826406476e+01 2.368100020066037459e+01
2.108623668151069452e+01 4.173268493799680812e+01 2.707058974318715627e+01
8.807641047798290401e+01 3.346255983972139347e+01 4.871282285426301684e+01
5.853046556174993498e+01 5.934579009981438702e+01 3.951171593950798666e+01
7.828627702006372147e+01 4.810421717535218633e+00 6.217726451431681056e+01
3.810071631397335068e+01 4.132016269245885098e+01 7.169354734415844810e+00
4.251839545286315314e+01 6.857639633987420780e+01 9.865850107576397932e+01
4.627352424849993184e+01 1.241976359940932895e+01 8.120774499086063258e+01
6.749675234378300104e+01 5.827579740250188323e+00 3.704904268555655733e+01
2.770101598623575523e+00 8.168285651951657655e+01 5.824500431313052218e+01
3.194306670943976201e+01 6.962119579742537212e+01 7.218624513332042625e+01
9.658450844363667898e+01 8.859619588467781170e+01 3.023930533006861054e+01
6.057322397394311508e+01 9.864588525129346408e+01 1.698336880512441027e+01
1.337454558339030797e+01 4.123784735605688923e+01 5.251843873038056643e+01
2.403522760163906469e+01 8.360779542266308795e+01 8.590872694064428572e+01
1.689789463134871994e+00 9.319766227370203637e+01 7.121825879473682619e+01
7.333974221243371971e+01 4.804202599538088947e+01 4.131361895723751587e+01
5.140438447517328058e+01 5.002901990571388069e+01 6.925125856617434295e+01
8.677352389348860129e+01 1.218309626004439039e+01 9.650980906753559907e+01
1.108719359165678497e+01 1.875411589176030347e+01 4.706791445446199162e+01
5.687883295453352872e+01 8.054065983023082254e+01 6.545644361941815248e+01
9.131445488688041223e+01 1.385652815939094573e+01 3.106325608287375672e+01
7.545560458772564516e+01 9.789066367224202736e+01 9.914909974673642523e+01
8.998208242584905747e+01 8.484094371911594124e+01 5.835894334295661423e+01
8.152629677569697719e+01 6.146268673936495475e+01 7.296862605454077766e+01
3.602523474233731982e+00 3.036314579677297232e+01 6.091981134196600145e+00
1.465619717850550430e+01 4.135879038718803358e+00 7.482908053258771020e+01
7.724918332535037280e+01 7.227953087768078433e+01 8.753842048876057902e+01
8.117129868636271794e+01 5.954412002426634487e-01 3.496568436547053960e+00
6.719566082289578901e+01 2.203490486273494042e+01 9.569147100467102263e+00
5.800977875060971201e+01 3.029797415381403169e+01 9.029356924521310646e+01
3.419957010755075544e+01 6.629201065414206084e+01 4.435797577435282335e+01
9.915416781203595065e+01 5.422285019070377388e+01 8.940420518296230057e+01
4.761279958279003210e+01 3.226590176382493347e+00 3.644924817841630471e+01
7.513897376699571851e+01 1.154965396243156128e+01 6.044202405652713139e+01
1.592285478013630851e+01 4.352934845036742217e+01 2.068600145943740998e+01
3.111414191371888549e+01 2.386849319502699629e+01 1.100248804004462144e+01
7.865170742174727536e+01 8.543968467790733712e+01 4.303125536812271434e+01
6.887060526229879542e+01 2.922512469438187566e+01 8.016435416673301972e+01
2.793457013346788287e+01 8.211093117802400343e+01 9.274675373693833080e+01
6.380124046021474982e+01 4.961083973253444412e+00 1.620957717054476532e+01
6.070711972193606698e+01 9.933954370975965276e+01 6.989127589026476528e+01
2.279603770200137092e+01 2.284583554684927975e+01 1.305713294926326107e+01
9.535374642134438261e+01 9.923546945862771906e+01 8.631681439258723287e+01
4.746016139591849736e+01 9.095072365142095805e+01 1.146526398263324431e+01
1.042388296367814426e+01 1.532347307043544404e+01 3.043738977732565232e+01
7.354472283823182011e+01 1.108323432019909838e+01 6.562089742312444685e+01
9.043172453292885393e+01 4.568594792327079546e+01 3.531236940240525257e+01
5.662594258781771117e+01 1.807972072885831594e+01 2.953797246774523444e+01
4.216341337710427517e-01 7.873259418136309762e+01 2.356787931331385622e+01
7.677949946077454513e+01 5.151011390068043028e+01 2.173063558224497172e+01
2.331126798209452033e+01 1.963758336525728154e+01 7.585951426955904253e+01
7.315793375125412012e+01 8.452834453814048743e+01 4.403566541047232619e+01
3.295820096738264482e+01 4.159173568769147522e+01 6.070413147443343149e+00
5.733922776766630136e+01 4.022130942726983704e+01 2.414921791986905930e+01
2.095272255658215954e+01 8.638686701417629621e+00 4.603440262547048434e+01
3.598120090094747070e+01 6.045648193691436489e+01 3.606381126763908895e+01
5.326011257309241387e+01 5.829674328122241889e+01 7.662248639305612130e+01
3.286135388516714073e+01 8.041302605804820303e+01 1.542049652476827859e+01
4.281856579342083791e+01 9.982242682639929399e+01 5.273255196519310850e+00
7.198654181242180528e+01 6.355858651314664343e+01 7.883933424565735493e+01
4.387472344568410065e+00 2.633950999597278653e+01 4.771471468224056878e+01
4.143001056098183454e+01 8.535846088587348390e+01 7.627226226382565244e+01
8.153959937718542506e+01 3.684704263635985022e+00 8.493713527113258976e+01
5.574866733717895073e+01 1.387591462629256256e+00 6.205163279186758274e+01
6.593906757709655508e-01 6.431143339195503472e+01 5.860386969386182443e+01
8.310501623475057897e+01 9.215125086508689378e+01 7.337516850275827096e+01
3.221801448910149901e+01 3.187673905232752958e+01 3.132288251571167947e+01
1.859742412197574879e+01 9.273351016577214168e+00 7.568869139221594367e+01
2.483333447539900618e+01 1.140974268401007130e+01 5.562697126366110467e+01
6.242751561496157819e+01 9.724355622309266423e+00 6.450689421999332751e+01
8.065007276186397789e+00 7.936808269022515105e+01 3.091475497115218118e+01
7.723294165958485280e+01 8.837477299780360340e+01 7.472007638536041441e+01
1.847880157865122897e+01 4.280091359538028684e+01 1.405398402645885447e+01
9.443800484884221191e+01 2.184696785536249664e+01 4.748840985720912045e+01
9.541802821161110160e+01 5.217484830845384636e+01 8.839337352862767716e+01
7.904056341667099161e+01 8.697078205409782470e+01 2.820499824045706916e+01
9.601542002962973754e+01 9.311168717568655495e+01 6.917365210051681856e+01
2.825112049763890454e+01 3.945956917352005178e+01 1.035069034924424081e+01
5.605882746186789944e+01 4.397265556925677998e+01 2.734254171994985327e+01
9.640749574584567938e+01 1.918045390325443478e+01 5.999281636171246390e+01
4.933772692472994947e+01 3.998103345186674318e+01 8.779516619598284421e+01
2.857390125838791306e+01 4.086176347130952990e+01 1.097209436461510368e+00
1.290976364481664085e+01 7.593397231406618175e+01 2.755155123697365838e+01
8.130689626188903674e+00 8.442584741745672261e+01 5.847516157934344960e+01
8.328616754148475820e+01 4.760488833061147318e+01 1.307658549197974196e+01
7.665779281040482829e+01 2.113900519948350620e+01 1.857106559321882600e+01
2.977935304376337911e+01 3.145868108821299103e+01 7.494922252949874064e+01
5.244167851103361500e+01 5.352603505018296204e+01 5.610628525667996769e+01
1.409112317852073737e+01 8.478128025907274434e+01 9.955871607397298817e+01
3.611852656419423102e+00 9.128371997380391178e+00 9.160616840921440485e+01
6.384117991771866940e+01 1.385696814671633081e+00 5.045648857310580837e+01
1.222356414738744412e+01 1.765386728914208891e+00 3.858815745952443876e+01
5.899015604830823634e+01 6.377297694586106758e+01 5.025395744805397413e+01
5.339069619633841768e+01 5.455124184311449653e+01 2.933645900629852221e+01
9.261193169219986032e+01 9.723910894724919274e+01 8.366436672891057924e+01
3.881761783645912800e+01 5.556675059875404088e+01 2.548173009152140267e+01
9.178181101941659392e+01 7.926793237084428512e+00 7.714789166806114906e+01
4.181118458118001513e+01 3.539328163530755944e+01 6.532290204057709104e+01
1.602143587447413253e+00 3.676405307175365778e+01 2.529586326570982635e+01
6.402713610168895286e+01 5.587851442596396367e+01 8.227695313219697937e+01
2.274041624115247373e+01 3.127758347009504902e+01 9.567643571020678905e+01
1.890606817816963314e+01 7.231745419880579107e+01 9.502992801540126777e+01
2.705550226636923483e+01 2.978757074975872854e+01 4.316677679377855270e+01
7.183049129947372435e+00 8.455341882210014148e+01 5.915152154859310940e+01
9.536474339062206695e+01 9.747169521493594857e+01 9.042216439040224429e+01
7.313925305157421519e+01 6.061394131533176477e+01 1.813645653835301985e+01
9.281099567189377808e+01 1.733036355820701857e+01 1.311656959028414349e+01
3.150554913417164116e+01 6.642568116759871089e+01 8.303414231631882103e+01
9.336171210957689937e+01 7.305322466277233673e+01 7.199730962915140253e+01
6.817051958905912556e+01 7.667183129390109286e+01 2.226764854888916290e+01
9.976376875723143201e+01 5.789408296888699823e+01 9.970084244307359711e+01
4.779425107981787590e+01 6.752069073786134368e+01 5.538538033380380199e+01
6.114386439240426796e+01 5.114042634592519221e+01 5.071377438948520933e+01
4.176330053811183518e+01 4.001103869115415534e+01 8.743391118835943132e+01
6.608792501481163129e+01 7.365332564522525161e+01 1.725830321415466884e+01
9.501741201241759427e+01 3.483084261965985196e+00 6.903032927068207414e+01
6.307198341521404927e+01 7.558039513657709563e+01 3.657997025122240586e+01
4.878276503509969331e+01 5.043421717529194837e+01 7.510999015323771744e+01
6.363349788553554731e+01 8.638043049103896465e+01 4.689376576903882921e+01
8.246986577177266042e+01 7.475160279712763156e+01 1.798119977330956232e+01
3.782658845349367027e+01 3.628039503752864903e+01 7.075289093155845421e+01
3.377401296020116916e+01 2.949543142332507983e+01 8.163524409197555087e+01
4.833947964105003336e+01 7.614474537918935937e+01 7.638072255432500413e+01
8.365669268231700073e+01 2.840297169926908616e+00 1.441756527410442601e+01
3.047825599562969945e+00 5.114954213670451821e+01 5.971043887720778542e+01
9.587429912999176906e+01 8.795306368821459841e+01 2.059425122143231235e+01
6.958091891974022758e+01 2.608885221730916726e+01 7.103391172768613160e+01
3.845160763984117835e+01 6.162545545249376033e+01 4.785091719345302863e+00
3.808312408618176192e+01 8.824051708177074715e+01 6.632582137684467227e+01
8.447310818191314752e+01 8.135856203210487081e+01 7.475428137734259337e+01
1.992849946606695255e+01 2.017280457285737327e+01 1.603492490297481154e+01
2.459014754838128169e+01 5.428480560155097834e+01 9.887814677167990851e+01
1.154903534785226604e+01 1.231858461970714025e-01 1.200264718705473754e+01
1.855284525883895697e+01 7.344079342091180962e+00 1.988252889373953725e+00
5.119752834147615062e+01 1.075614689904577048e+01 7.375373283606980124e+01
6.728534283048486486e+01 6.995876780009925255e+01 6.848069015404163906e+01
7.530990882913710038e+01 6.452183818597367448e+00 5.795640158971890799e+01
3.846408554870011898e+01 4.553511142682837942e+01 1.565640962717880313e+01
2.175786336398741838e+01 9.472935822042360954e+00 4.926142396133602830e+01
6.280601818123329139e+01 7.577575511054556046e+01 4.571209168621099650e+01
9.072807951502097978e+01 9.643048864829980005e+01 6.696423622341657733e+01
6.445293637685128374e+01 3.064139445904818615e+01 4.559289376515013004e+01
2.879910013958596338e+01 7.755279235638258228e+01 4.595726640441289845e+01
8.739796751322226953e+01 6.690885501186809847e+01 2.082335659759327839e+01
8.238680746057407589e+01 1.648102875179465698e+01 1.884460771605994722e+01
4.490720215285966788e+01 4.779163598007465197e+01 7.078598373570732960e+00
5.994923294949307291e+01 8.932495468324584920e+01 5.327340586298856806e+01
7.363133522709152601e+01 2.867077453624646921e+01 6.239662722643195281e+01
5.356035917224798482e+01 7.680495892290882409e+01 6.687755726676954282e+01
9.682561124127627750e+01 7.445587173932111114e+01 2.395703648455616985e+01
1.694313886698328631e+01 9.635238758213967003e+01 2.840171750251418992e+00
4.937890707177006178e+00 2.556612031381487782e+01 4.288416628198176994e+01
3.701245561310758347e+01 6.492270487329672335e+01 6.900656275748538349e+01
4.796441514706594234e+01 5.790222415484191920e+00 7.533310180466365580e+01
8.412591212471119206e+01 2.866447608081753629e+01 5.637461797573372735e+00
2.378313578907522796e+01 9.032954667456228037e+01 7.089528457239568127e+01
8.002269127082124101e+01 2.479846339553483148e+01 7.466045164761744957e+01
4.692758964756308160e+01 6.553081846499611629e+01 8.034731307196456385e+01
8.783917996276599638e+01 2.924918664761886333e+01 3.765873430590301041e+01
4.367825751534966372e+01 4.116130479666252029e+01 5.627378051222915190e+01
2.178144609975535317e+01 5.851250923037382279e+01 1.521330361573359724e+01
3.225231095265647951e+01 8.177727666463930234e+01 7.046184551511043992e+01
2.070313662221582263e+01 3.794482452295969921e+01 3.501167246270091482e+01
1.236024212913789988e+01 4.282916323427774330e+01 2.578498660136863130e+00
5.110380597039876349e+00 6.599185204669831251e+01 3.000285931812779339e+01
2.351921925738890096e+01 2.925402489106538795e+01 4.820559909437619694e+01
9.298589556705748294e+01 9.548980759943493268e+00 8.391961152006874158e+01
3.449289419880585683e+00 5.849653441696850109e+01 6.409717235190814222e+01
3.912920069647187660e+01 1.789576478315266783e+01 7.277326133962145605e+01
4.086104756761552892e+01 2.266167758782932040e+01 1.289367421731593133e+01
7.529677328556287819e+01 8.941128507942967474e+01 9.168056616595164598e+01
5.507854008620538622e+01 8.530293063430104894e+01 6.599391472580514062e+01
4.791727244063739022e+01 3.273101730839185564e+01 1.871507185644822968e+01
8.067578745213769764e+01 6.321354495942556184e+01 9.407684543312178960e+00
7.026647150759416149e+01 5.394580028405074046e+01 9.071316628570590979e+01
1.113557554608313183e+00 6.190701691271755891e+01 4.056557463093526650e+01
7.290207105140395072e+01 5.885736616629325368e+01 2.370527361012706535e+01
