2.855728093861434758e+01 3.469589305787494027e+01 2.193782201863811920e+01
4.579926239423779322e+01 5.919836074576114981e+01 3.058510176425849281e+01
2.688824804540394098e+01 5.296751723277973412e+01 3.676268509120031780e+01
2.553667730947196546e+01 6.409505755915066061e+01 3.748313615358379280e+01
2.352821520223504592e+01 6.337316842898557212e+01 2.715194010360064780e+01
4.219339333903496936e+01 4.113544611667600037e+01 2.027988351794047617e+01
3.688255837453321107e+01 5.597486430035830551e+01 3.549314103253019681e+01
2.188129561154284985e+01 3.172987272355794985e+01 2.097201162353746895e+01
4.160423440373767079e+01 6.005629318762664326e+01 3.131527847377579832e+01
4.630204087835566895e+01 6.237573768147569808e+01 1.028589832910197188e+01
3.442519410088998910e+01 6.353244100171792041e+01 3.893072103854650123e+01
3.148547744895842015e+01 3.203907922107678274e+01 3.286966373841973166e+01
4.169436683604772753e+01 3.378720556834895206e+01 1.762560012688980748e+01
2.443098956581997072e+01 6.140182381437027459e+01 2.688518204544608636e+01
4.802952892177832211e+01 5.475876341659358104e+01 3.982353398728981375e+01
4.444280615858687611e+01 6.143320031776900692e+01 1.239249613138298045e+01
3.139880626828410826e+01 6.745833773225305663e+01 1.916530998162716415e+01
4.260500000115100505e+01 4.827559761802688598e+01 3.569416581079861572e+01
3.012578822892223585e+01 5.336675750288441122e+01 1.760182640952274724e+01
3.668081520637438331e+01 6.499452905006599224e+01 3.360394946250730186e+01
3.500475079183092930e+01 6.862480703373790902e+01 2.629090804245003454e+01
2.667694883997575772e+01 3.860019914893619841e+01 1.549112761892977908e+01
4.128757572756151006e+01 3.583233989897629357e+01 3.676286924193919958e+01
2.164490722034766534e+01 3.683578890848203713e+01 2.200432009798287680e+01
2.172754819946564098e+01 4.042639515073680201e+01 3.503627721241488047e+01
3.833202267870491653e+01 3.091925977643708023e+01 1.313399819355625198e+01
3.767056222090786832e+01 3.900483047943840376e+01 2.610742694030230382e+01
4.086358865996926681e+01 6.053334537723961262e+01 1.914232462365304954e+01
4.537676689652587925e+01 3.965011012017852465e+01 2.205804415353520653e+01
2.212773578224981463e+01 3.676864324026606567e+01 2.558628392853429290e+01
2.592167318725568848e+01 5.513678613081724222e+01 3.304181416308860264e+01
3.270097462344315886e+01 5.133125198993079152e+01 2.317272212174208335e+01
2.903412816138160224e+01 6.119081509113469508e+01 2.457273196531451021e+01
4.153527259442044794e+01 6.259216166951928528e+01 3.397697825925446580e+01
3.720221358514174881e+01 5.042432943973976478e+01 3.249288422809023302e+01
3.552278634093316612e+01 5.023340215514708973e+01 2.328298655690367269e+01
2.175160487755204386e+01 4.708849092659411895e+01 2.438352636921790051e+01
3.604196908318225923e+01 3.695842979758210589e+01 3.833579656560966953e+01
2.936975499477884100e+01 4.103696197939377299e+01 2.653518650954244151e+01
4.930923173926019842e+01 3.837468555123414404e+01 3.515231667196948706e+01
2.583885997166389714e+01 3.708666888193108235e+01 3.336940385419584487e+01
4.684056251914913105e+01 4.842546495416755192e+01 3.297612742119038387e+01
4.549887982369261863e+01 6.704260869265911538e+01 2.422359129968527469e+01
2.730220072518553209e+01 5.662582595356090565e+01 3.532181608403708140e+01
4.798191561456618359e+01 5.928706337910069379e+01 3.608490391925896290e+01
2.724793246917160872e+01 3.629847961313294746e+01 2.614458155750595125e+01
3.464877495763097670e+01 5.391925938378741279e+01 3.317708399134079400e+01
2.458043661033621063e+01 6.560182849422909612e+01 3.345991732636919380e+01
2.322887210256989832e+01 3.763387641347808454e+01 3.748613389590460798e+01
2.862934906070674401e+01 6.193769472924410024e+01 1.368279609865570379e+01
4.738122951239063241e+01 6.436971647876029579e+01 1.350888374593493069e+01
3.722055491583881803e+01 6.498555698099723088e+01 1.555178044090551559e+01
2.632611490937005883e+01 3.626717692743140731e+01 1.143326136578911623e+01
3.889055618770994727e+01 4.084557563962315641e+01 3.754611854843633267e+01
3.642786012166249066e+01 6.895098515761948477e+01 3.391308308552216744e+01
2.238893183365509998e+01 5.231088389904480351e+01 2.987018851306931921e+01
3.671813976554864922e+01 5.327485986066574952e+01 2.293577992784965147e+01
3.288108604861707818e+01 4.688521262040905668e+01 2.814681086347419381e+01
2.796029414806734437e+01 4.626791789948971712e+01 2.292278616262770541e+01
3.886974432251384570e+01 5.140741550085118661e+01 2.347280189455687349e+01
4.510249818681712952e+01 4.903861344167877689e+01 1.812713548298301447e+01
4.206403917521044633e+01 3.354301972413262689e+01 2.044124560163440663e+01
2.620940557224310652e+01 4.643244640212920160e+01 1.754351797295846538e+01
3.916339516890919015e+01 6.673947282230358269e+01 2.015032979949788938e+01
2.035766594678453245e+01 5.981931390678920479e+01 3.040482487404796430e+01
2.764222178902005922e+01 5.704911557487830720e+01 1.218839386663418445e+01
3.030803325975443130e+01 3.957986435902049038e+01 2.944647970899392320e+01
3.532468080814032163e+01 5.503567792123671154e+01 2.537208164163594759e+01
3.676517468481394957e+01 6.418580247615138035e+01 2.965904379158133963e+01
2.262237477875523695e+01 4.726973596099838204e+01 1.860555108082243692e+01
4.517526191592155271e+01 4.186243599602643428e+01 3.588421197415402020e+01
4.418911762057583559e+01 6.804024798206143032e+01 3.995043393934339804e+01
2.153841962943687705e+01 4.257169427980189624e+01 2.517662366781202721e+01
3.855740381239357362e+01 6.468453666982891548e+01 3.383761960093365673e+01
4.557244264435599490e+01 4.720058013551619069e+01 3.791907391940546290e+01
3.379087342567411412e+01 3.337520165030179697e+01 2.193233974927417762e+01
2.163287891350137571e+01 3.555008919161074488e+01 2.071758860629114807e+01
4.364221393817791750e+01 6.498704180732661939e+01 3.667097619068538705e+01
4.824149800102346575e+01 4.525388164300547800e+01 3.039291540421905680e+01
4.213488027889273013e+01 6.293907810136212078e+01 2.380185692151219712e+01
3.530392394111780163e+01 3.398184825949495291e+01 1.864184498607306395e+01
4.729001101199392565e+01 6.587124335218143756e+01 2.664331238496596654e+01
3.683958179235959562e+01 6.901993817594855329e+01 1.566561573924107975e+01
2.737150647694673822e+01 5.742591086681099455e+01 2.627729435249289835e+01
4.249829345981763851e+01 6.789421720614771516e+01 3.704096322289106524e+01
2.937604079433054949e+01 4.666535645279610378e+01 2.043730247707035019e+01
3.893108263958075099e+01 6.507624525076266764e+01 1.758476185350889054e+01
2.742792041944376180e+01 4.696552595381766793e+01 3.810209321366824042e+01
3.542944341166236200e+01 3.268190679448982650e+01 3.970402707271675524e+01
3.954842504438646245e+01 5.003635449784711398e+01 3.159291003206964277e+01
2.069233617551646631e+01 6.849614269609715222e+01 2.372967098275687903e+01
4.648950442610355793e+01 3.469885728410410053e+01 3.118078570613020872e+01
2.586116973859241597e+01 3.508460173974023633e+01 1.808799109549574879e+01
3.073987537279320037e+01 3.829674465539082462e+01 3.034930443031315050e+01
3.676961469444861308e+01 4.064438005945357446e+01 2.436837075037738742e+01
4.667638784157116305e+01 3.421726128277068568e+01 3.157331703334438444e+01
2.599511242304421899e+01 6.356330640767600926e+01 2.206804820511939624e+01
4.091942594158977897e+01 6.497547571964493329e+01 3.960092801930724704e+01
3.892534368439920200e+01 6.656235570300083282e+01 1.931413411933872126e+01
3.250010515425643121e+01 5.046680230638826004e+01 3.749181020220360949e+01
2.917673362213447774e+01 3.544336572741657676e+01 3.056784798287012350e+01
4.730045908994631532e+01 3.827794133751518757e+01 3.165680219230123527e+01
2.468166858544785924e+01 6.951027222839320530e+01 3.573558161926254684e+01
4.479689705205349526e+01 3.239059435442636214e+01 1.288417389565178439e+01
3.206319672856348291e+01 5.398760102005591932e+01 2.446723295840819290e+01
4.779342279444784936e+01 4.926394117126260142e+01 1.153764834380156579e+01
4.587931135855610876e+01 4.151458435136121494e+01 1.199471124948289180e+01
4.884404640306109258e+01 3.797811013581318917e+01 1.258787075114332588e+01
4.461797611387232365e+01 4.038460291555151827e+01 1.172616006722587656e+01
4.650523414959143764e+01 5.978021591464616336e+01 2.749339839180581180e+01
4.233378626029390546e+01 3.614358870309800409e+01 2.277327837511654707e+01
2.304449533524454097e+01 5.311855536177820625e+01 3.714956146734623843e+01
2.443894202228330670e+01 4.642793902498305414e+01 3.029907461052505724e+01
3.933959356292432119e+01 5.034177538626707360e+01 2.038336324877640848e+01
3.991498424131417977e+01 5.064133209804351310e+01 1.943351693103250000e+01
4.731170027741043072e+01 6.560747820406936626e+01 3.308351543179962562e+01
3.531084564516295643e+01 3.656269792892574344e+01 3.337902414907105708e+01
3.601291634772311312e+01 4.682324064131123720e+01 2.862881356217643614e+01
3.195542685539611938e+01 6.672580527482135437e+01 2.540448032925035449e+01
4.432104483146935081e+01 6.164848456176881086e+01 2.836731811326307451e+01
4.554527981620306321e+01 6.869495607197457332e+01 2.603516220518854496e+01
2.479781087019726726e+01 4.077548274902762415e+01 1.131469626731640332e+01
3.934519499120822417e+01 5.469715025669032116e+01 1.187740886753944025e+01
4.049823342077648647e+01 5.216316142879333739e+01 1.778273014014324360e+01
3.765438979378591711e+01 6.392049140431421961e+01 3.063161451898751508e+01
2.400258501504050201e+01 5.470508810003936873e+01 3.666352490115728813e+01
3.680226394481377383e+01 6.134295893025818458e+01 2.327710087853861509e+01
3.966759846082703689e+01 4.775499447342670578e+01 2.758737402778533720e+01
3.755357601546376145e+01 4.775495384725080328e+01 1.020707191587599816e+01
2.171305007752107841e+01 3.470845980609765036e+01 3.463605871800298530e+01
4.490280293285407964e+01 5.101282672174976796e+01 3.218664482023487494e+01
4.393165059326533850e+01 3.886884121155381422e+01 1.315556423464543379e+01
4.318421681088998554e+01 4.368789914261677865e+01 2.628607202441394364e+01
4.549997315576123924e+01 6.902294455121912620e+01 3.693985901619096524e+01
3.442907495419098751e+01 3.373847053453859957e+01 3.326680341741230507e+01
3.948096428699611238e+01 3.803472125598699449e+01 3.167794798218669428e+01
2.500486262716430375e+01 5.443492133236556896e+01 2.434890132605496049e+01
3.592466340029108096e+01 4.175222783945343963e+01 1.944977022199243422e+01
3.457079705036264272e+01 4.572912942793610114e+01 1.799844924786328093e+01
2.659534693021021923e+01 3.174440703243851658e+01 2.432363033938181829e+01
2.923569721480607697e+01 3.811595413099701091e+01 2.489069351694923427e+01
4.705623423695508478e+01 6.555857564644232127e+01 2.050169761968995275e+01
3.229889359714533725e+01 4.906594750534094374e+01 3.878300691976822634e+01
4.621868038357654029e+01 5.144492006602523304e+01 2.240100665835463900e+01
2.795655890620265538e+01 5.056696030630056526e+01 2.462991802277325704e+01
4.319056296342521506e+01 6.093515061838291302e+01 2.500051293888780890e+01
2.105124852651078982e+01 6.993302036042547343e+01 2.701828918020741099e+01
3.940959728813936636e+01 3.581215510034736837e+01 3.276155587750184850e+01
2.337264869824063851e+01 5.001288831155846992e+01 2.043489062537755530e+01
3.915763778434685349e+01 3.431671440919512861e+01 3.282436611047054953e+01
2.243569068023483126e+01 5.471207945725733168e+01 2.096490589564855611e+01
3.053159260773923478e+01 5.741584687538156828e+01 3.940936094125471101e+01
3.626491817699278641e+01 5.990889890872572465e+01 1.311931680116673604e+01
4.887235130335123756e+01 4.538739668316981124e+01 2.052424455544584703e+01
2.830499877674167308e+01 4.681265376545641033e+01 1.032806553378301473e+01
4.185769121167540874e+01 3.672674571413872258e+01 3.615219958937222344e+01
2.835419168613179153e+01 3.701576589599402212e+01 3.202838184874065064e+01
3.994853052757962786e+01 3.945415923111104917e+01 2.326282436838039658e+01
3.922586512977290596e+01 5.645342331402979141e+01 1.521867032342200154e+01
2.165813809980098270e+01 4.872264157505517801e+01 3.028786642386679517e+01
2.018470972340333702e+01 5.783030705941962424e+01 2.732637259918832129e+01
4.184076224277610834e+01 6.707558026457581946e+01 3.109332010349179498e+01
4.262110549977137453e+01 3.591928586918983513e+01 3.208341510134420105e+01
3.943426208186172488e+01 6.652488757739111236e+01 2.140923972623688343e+01
2.851737397298171928e+01 5.507807036347846008e+01 1.083308766784786314e+01
3.078917789055513055e+01 5.894748727854396719e+01 2.636037947445870699e+01
3.797516374857483612e+01 5.640427036808499395e+01 2.764889570861441825e+01
3.800071115010511846e+01 4.853956390032985979e+01 3.810510037396785066e+01
3.299864975821837731e+01 3.169120787633213965e+01 1.354141361724179404e+01
3.914797343252311634e+01 5.382172606192931852e+01 3.810416301011605356e+01
2.339690936997375204e+01 3.021672311079929329e+01 2.231027792157361844e+01
3.846424651018174501e+01 6.748041447191346265e+01 2.860746995594418607e+01
4.417597000128132834e+01 3.922169741766501261e+01 1.195726968737080753e+01
4.134962422065181187e+01 3.751972775215089939e+01 3.915372329310861232e+01
2.402884067415702418e+01 6.019070632115533925e+01 1.680241923961194317e+01
2.936752357538120606e+01 3.974709126186599661e+01 3.019821052488624957e+01
2.954751560527784093e+01 3.925427176195506007e+01 1.735106722353904019e+01
3.844322931485075401e+01 3.877447916352385704e+01 2.021102364017540864e+01
2.911553162537848749e+01 5.202120690475321396e+01 2.638938336626469550e+01
2.994484171179594512e+01 3.019551807127973575e+01 2.771311201667872126e+01
4.618184265566595315e+01 5.398171153606280370e+01 2.050501732395586529e+01
4.345175355617355706e+01 5.100760705022339181e+01 3.227374342363752646e+01
3.689691728165729501e+01 6.479263080625570126e+01 3.965378032187359736e+01
2.796697250518137423e+01 4.653838283896597261e+01 2.902809693175627359e+01
4.732980132265724649e+01 3.441648312155236766e+01 1.058733997152007156e+01
2.850847947663802628e+01 6.207257733511383435e+01 3.983502735325286181e+01
2.025579283066801750e+01 6.984958374396211411e+01 3.028285935394789874e+01
4.513765868885424482e+01 3.651424139213838771e+01 1.410786966250382513e+01
3.205490591003385958e+01 6.375168174448842962e+01 1.427407941387911450e+01
4.833564908042941966e+01 5.218872114957924424e+01 2.032908390505930996e+01
3.249586217624377582e+01 6.098462540585730807e+01 2.905401521356749583e+01
4.698100500916572031e+01 6.315552598389027139e+01 2.022246095543265199e+01
2.003293918414873431e+01 4.797463800833834568e+01 3.382510683955762687e+01
2.370286579446268149e+01 5.446113542012425057e+01 2.413259129792676561e+01
3.973817905562084718e+01 6.570191589459864190e+01 2.181484110588938208e+01
4.247972150372066835e+01 5.809927920373036159e+01 1.754668639066332503e+01
4.420283051904190330e+01 4.192289078031079441e+01 1.662699735221749719e+01
2.600155605961027661e+01 3.247694021582469759e+01 2.261326413797579704e+01
3.334026846375475372e+01 6.103528638322740818e+01 2.996586879405522907e+01
3.790657366346764690e+01 6.039913238691708841e+01 1.156888754064444669e+01
3.574988257420127269e+01 4.950099279394364515e+01 1.121541403435071160e+01
2.849364210953240217e+01 3.993177839777344218e+01 1.481073963374025482e+01
2.221507701532008383e+01 6.419222435805251337e+01 1.904481566955151806e+01
4.333665434233657976e+01 5.529161179267745041e+01 1.423238057137727886e+01
2.871966599867995384e+01 6.850552173051916327e+01 1.589161185071373872e+01
3.459184884001770399e+01 6.920419845910437573e+01 2.861216555355035140e+01
3.258673692768627461e+01 6.474955359218256490e+01 3.632325065338692838e+01
4.805665084037996593e+01 3.257358401730845543e+01 1.987162551626234830e+01
2.415144546318176566e+01 5.396517515013247390e+01 1.979512261737906798e+01
2.223079404761749700e+01 3.736000838941249924e+01 1.671194924773258350e+01
4.586545834860294946e+01 4.678591040287231806e+01 2.411143959807602499e+01
3.807872151896310697e+01 4.854651643981564746e+01 2.238602845132796659e+01
2.975493629160041920e+01 3.001820665976190483e+01 1.373167431341814115e+01
2.613208642116894254e+01 6.047518396144455721e+01 3.557200088977072738e+01
3.681892547845562547e+01 3.348475263789061529e+01 1.652365375163865480e+01
3.983753269400597219e+01 3.031588047700902777e+01 1.924233607961885895e+01
2.991566417399332778e+01 4.937715623201371784e+01 2.870584615204483470e+01
3.855618600898216641e+01 4.480908711250116738e+01 2.597839658984592148e+01
3.049198914076207600e+01 5.748959706950837756e+01 3.343265320802923668e+01
3.591515449113108360e+01 4.927859248156628524e+01 1.266133933287111368e+01
3.831241623587082756e+01 4.057342387413557105e+01 3.918836810052223285e+01
4.969003144530472582e+01 3.290569211817031459e+01 3.246342375439355266e+01
3.666981637271690886e+01 4.754355684519673275e+01 1.981159582937636188e+01
3.364337023828304041e+01 6.328663442987411258e+01 2.777313098853596429e+01
2.820900711350980927e+01 4.725854948041134662e+01 1.989249445756223622e+01
3.106306120210099309e+01 5.872872595740129498e+01 2.363809045316302004e+01
4.698580260069805803e+01 4.237601927676399072e+01 3.264313977324453475e+01
2.848094875038071905e+01 3.736780973808068040e+01 2.708261315563949978e+01
3.328528244806607717e+01 4.833199903615644644e+01 2.332956010608952013e+01
4.788897074399901754e+01 5.081785634036353372e+01 2.972339080551701329e+01
2.738697035947046388e+01 3.539685212095417910e+01 2.724325309330885148e+01
4.572687022053519712e+01 5.543490839063894526e+01 2.400472869422772959e+01
3.721652662596265060e+01 5.432205774840809198e+01 1.044173153576222290e+01
3.412645349905123737e+01 3.684761884310825053e+01 1.912680169487311943e+01
3.431919071623346440e+01 4.227454274179681448e+01 2.253968227550179293e+01
3.245898343581331602e+01 4.014768490312830096e+01 1.483548825256971782e+01
4.155799815584227019e+01 5.043731547950523719e+01 1.824509945053954851e+01
3.579051669684748305e+01 4.575828060652212059e+01 2.923823314779381377e+01
4.056146794988718796e+01 5.452122006078868566e+01 1.829052932465652503e+01
4.783820291733321994e+01 5.820784537549016591e+01 2.512270201207144993e+01
3.485729440931728362e+01 5.605003534684200872e+01 2.630665883136954619e+01
3.932626861052273171e+01 5.685946163430313050e+01 1.336063973974381724e+01
3.900550519679699590e+01 6.776372384116987746e+01 1.292465239459001936e+01
2.056569452650463958e+01 5.230518602092021041e+01 3.361810153573714643e+01
3.931243460639338849e+01 6.964784577346571837e+01 1.928636393168541474e+01
2.707143381423507833e+01 3.998371467139720892e+01 1.482874503108156894e+01
3.030778259286586263e+01 6.173163738301830961e+01 3.708927069062696091e+01
3.737433971924717468e+01 6.403336061207537000e+01 1.804870787029626555e+01
2.657295211032922921e+01 3.405327618850994043e+01 1.503393830458562519e+01
2.294972912608410809e+01 4.962079759049821348e+01 2.946104675543029927e+01
3.139452480439347681e+01 6.720871724510249123e+01 1.525802922864462019e+01
3.249019196376134744e+01 3.057238179934121902e+01 1.677181167257267802e+01
3.761358477154730195e+01 6.879372347704270396e+01 3.662895652899771193e+01
2.719142412451936863e+01 6.199733655503841590e+01 3.366648204175552905e+01
3.737517928610866136e+01 3.291672778835960855e+01 1.707855964524440751e+01
3.832976006547988845e+01 5.635128481770986753e+01 2.105203824030433779e+01
2.851242284064081645e+01 6.438765119017377003e+01 1.720151264068671182e+01
2.012489344194624508e+01 4.962699504234071668e+01 2.245548049248966649e+01
3.273975309885146601e+01 6.805228653266644301e+01 1.567312202176123215e+01
3.725206034970830160e+01 4.092843225315717604e+01 2.794183108183968400e+01
3.704584249722459077e+01 6.430774707079774544e+01 3.620558120597715401e+01
3.492192419460275943e+01 5.762484004131358262e+01 1.472662978407859313e+01
4.086670192911333288e+01 5.396742519442875619e+01 2.836433203764111610e+01
3.563322714317481399e+01 5.141406727106221553e+01 1.925848099328332097e+01
2.436350612183122522e+01 3.911909581804310676e+01 3.269055117277069655e+01
2.478555016386826537e+01 6.139413630284190759e+01 3.009555349576330485e+01
4.577648301418057741e+01 5.494379333136698307e+01 3.488136020811556648e+01
4.662581998885695356e+01 6.273216057718556726e+01 2.450011568679511953e+01
3.586824205282972144e+01 3.356178939778882153e+01 2.038836154587020388e+01
3.526256796231960067e+01 4.698827223171755207e+01 3.317726231295571182e+01
2.165102495089668011e+01 5.598044104667611975e+01 3.764518630545659050e+01
3.047665213023036301e+01 3.081268599926874074e+01 2.948539742024794919e+01
4.248559179321428303e+01 4.107782315624912428e+01 2.774714076783038053e+01
3.552071562181676967e+01 3.276412895191157304e+01 3.386342360603201485e+01
4.987411712307665823e+01 3.105486924837239826e+01 1.720811361473183609e+01
2.413427333620337123e+01 3.718297189204805875e+01 1.299928529053280357e+01
4.556783655384236909e+01 6.022694828739118122e+01 1.722576154101363954e+01
4.995978305822346499e+01 3.825960801799475064e+01 3.181746322231532176e+01
4.743440920811342920e+01 6.035905447392071466e+01 1.155981025663915851e+01
2.905196552660761355e+01 6.080219643192995704e+01 1.803853208826404853e+01
4.765129851647854764e+01 4.034380974359172711e+01 1.982049326786658838e+01
4.459283428689098372e+01 6.962802011726503792e+01 2.759994389541236970e+01
2.428003842516304189e+01 3.415751149675241294e+01 1.807228816746875211e+01
3.416017387762846624e+01 5.674828742223840550e+01 2.199757951267440248e+01
4.048709754438395692e+01 3.074164323755771377e+01 1.438996096458760121e+01
3.702762398585603876e+01 6.939986823725438114e+01 3.518126630500331231e+01
2.445392474085339529e+01 5.371482015952007316e+01 3.821834682599134680e+01
3.753770397191888719e+01 3.103386922906953416e+01 3.002177380159859510e+01
3.356061531068284864e+01 6.383943550245676590e+01 1.641753226307599434e+01
3.061197413782709020e+01 3.773200757108548942e+01 3.398133039088554597e+01
4.142294128669283992e+01 3.465936162718406877e+01 1.358284972234179477e+01
3.160932941112750783e+01 5.767055616366777571e+01 1.251015265589315817e+01
2.351134925521188990e+01 3.044229820560582311e+01 3.801340982010338365e+01
2.066024474218011164e+01 4.302729532364081422e+01 2.076699669352692723e+01
2.292182980526683522e+01 3.827590519391659285e+01 1.103771673696897260e+01
3.518709522648678956e+01 5.960658375016295452e+01 3.188187808783743549e+01
2.617918603326560145e+01 3.262822587667687202e+01 3.437624141893289220e+01
4.887263213962237529e+01 4.440069591436140684e+01 1.639174370675731041e+01
4.816193790845034783e+01 5.407429933447222936e+01 3.153260587678220617e+01
2.592628569078013712e+01 5.094527498733258852e+01 1.883093615218783867e+01
3.305809420594412273e+01 6.380602163818670647e+01 3.292763441131414481e+01
3.233898217660626528e+01 6.611112207059811396e+01 1.770702080685696700e+01
2.319318298837417203e+01 6.447088786051519094e+01 2.184257623191465569e+01
4.023664199176953105e+01 3.743573583691042472e+01 1.182310961442977160e+01
4.633855645916049326e+01 4.695067803128360140e+01 2.213749923607795012e+01
4.812880220691715749e+01 3.866976453435639627e+01 2.519348700034889177e+01
2.679557287492717421e+01 5.246375229478827862e+01 2.017640035000154342e+01
2.233321869199951237e+01 4.004304724626845768e+01 3.785844833863784942e+01
4.627626490601029019e+01 6.657982701802077941e+01 3.370848576441990474e+01
3.360840615309462720e+01 6.566314313992950247e+01 3.997945476574765422e+01
3.286829519680196654e+01 5.811520278447213173e+01 3.150195591025244468e+01
4.350114932017780234e+01 6.703075108599672660e+01 3.490231863304835969e+01
4.942973148211490297e+01 5.080842268842271636e+01 1.546498237544909848e+01
3.662762820938934993e+01 5.804469141323902193e+01 2.060230105151575941e+01
4.447979298068022302e+01 6.019314281767614006e+01 3.691417864052797171e+01
2.622451591240806579e+01 3.589496476928731994e+01 1.042083415917281997e+01
2.122502180658204551e+01 4.752306411617114179e+01 2.027271589933976514e+01
2.108900387069440185e+01 3.802741191540366117e+01 3.946057346148613476e+01
2.584285465533066173e+01 4.477305399816908960e+01 1.226303621085079776e+01
2.443988860492515158e+01 5.010745947699881953e+01 1.674415731985639155e+01
4.372799059771187302e+01 4.695306433657668777e+01 1.689098212846363722e+01
4.529055954200465095e+01 3.188299698849020913e+01 1.801038241615909996e+01
2.091607347843737941e+01 4.944965865929680149e+01 1.425431258833714843e+01
2.362084557780971394e+01 6.669286533448335774e+01 1.242470399789968916e+01
3.050762719642649046e+01 4.736234327963738622e+01 2.023706552663452385e+01
2.939779536068338928e+01 3.654762865327040089e+01 1.197886974501258806e+01
4.265972596584526144e+01 6.272275362689474321e+01 1.168094770069436628e+01
2.539512474907682460e+01 4.789503666390420022e+01 2.974846233948003160e+01
3.519345713055817981e+01 4.542506565100923410e+01 1.156942734598427336e+01
4.921830729777376945e+01 6.475391903997854115e+01 1.753549735869387405e+01
2.485539421528469717e+01 6.478498821024328436e+01 1.051945846009406615e+01
4.987994639683651599e+01 3.023731916381423446e+01 2.663580058908463499e+01
3.994717018459642333e+01 6.459094577547828919e+01 3.055294196080262736e+01
3.076321158483655793e+01 6.095212315733802200e+01 1.275273599052895079e+01
3.351011994529237370e+01 4.545602478821980696e+01 2.185304879283197366e+01
3.932259433338126797e+01 3.179832017463031235e+01 2.879384235366061517e+01
4.949898684172414676e+01 4.635787420792895119e+01 2.346722264893638155e+01
4.264419231955562850e+01 4.306899502559839732e+01 2.118349025064434343e+01
3.992214753203050748e+01 6.796608208743015211e+01 2.297831050736747116e+01
3.246624022681937305e+01 3.785726200072000580e+01 2.036336663826581272e+01
2.710304066958639879e+01 6.578842919959917879e+01 3.826618937499753059e+01
3.422018989878884554e+01 3.178652273851509946e+01 3.274393013105154893e+01
4.297572821784615371e+01 5.699255555741547852e+01 3.661727659072479213e+01
2.303821509701911197e+01 3.270100898381562615e+01 2.606993574575001560e+01
2.263385200949787901e+01 3.391029719427349676e+01 2.831867499469020544e+01
3.566465245191325550e+01 3.627478647697579817e+01 1.013601398780644658e+01
2.046730033963484274e+01 4.240767226685834146e+01 2.734135563902432153e+01
4.372309380797080536e+01 6.793099465309781237e+01 1.899619251486479499e+01
4.136445631260644262e+01 4.207835100776095771e+01 3.527170269180417250e+01
3.911939017006019981e+01 3.097138653361254512e+01 3.273429944380256984e+01
2.042487071723370207e+01 4.130323526128840683e+01 2.378331013221939116e+01
3.714857444801251773e+01 4.684686649602917186e+01 2.998514133900673784e+01
4.334470066082871398e+01 5.524943060036885356e+01 3.940852154174640987e+01
3.731411361746809519e+01 5.557629729804033047e+01 1.500969166799037779e+01
2.545286973478322423e+01 6.560112223790724784e+01 3.110660577370315494e+01
3.699147131920188514e+01 3.549410852342764855e+01 2.528438174478382194e+01
4.841471564012984885e+01 3.896240458373574711e+01 3.651750209647261158e+01
2.951280636588685624e+01 5.298820567213255117e+01 2.398718621190603173e+01
2.621488652205443515e+01 3.281073267614485189e+01 3.722319614149864009e+01
2.009692211593008437e+01 5.589781076737318699e+01 3.981712506437759203e+01
2.299556758918017607e+01 5.287233609753594266e+01 1.507820766838476878e+01
3.915358109699052136e+01 6.979955378373826136e+01 1.552750856826875570e+01
4.422272485960760946e+01 5.133270714334668838e+01 2.214472072890401222e+01
2.200906088389283966e+01 4.638498690472135877e+01 3.650210668500076849e+01
3.693513328261508377e+01 5.020855007222614574e+01 1.713556909597403433e+01
3.419238086491221651e+01 6.786982366826099167e+01 3.294934856075192187e+01
4.986265027987811749e+01 3.560173477962337074e+01 1.692516938248176217e+01
2.556612329138406992e+01 5.615671430441052792e+01 1.435576953811111878e+01
4.934088850027161754e+01 5.690075751723859554e+01 1.336499376620552404e+01
4.383593318220692936e+01 4.174589742531007630e+01 1.630936581019005871e+01
3.984579106778923574e+01 5.114207254179841300e+01 3.380648059335553768e+01
4.846712495836321466e+01 4.712515293063611921e+01 2.956364853512274493e+01
3.707463728909701217e+01 6.541202109200877146e+01 2.981323964269093807e+01
2.574635906828267551e+01 3.994900825501254360e+01 3.811267927430043301e+01
4.328146895833528873e+01 5.538655075841756315e+01 1.820948257187022890e+01
4.264337464353119600e+01 5.006797607325427180e+01 1.549100206433621274e+01
3.831848489476811181e+01 4.781425146713858254e+01 3.068915953543081088e+01
4.136113294117422612e+01 4.601128168519165484e+01 2.921620701414432375e+01
3.649144264893665479e+01 5.188932022468299721e+01 3.654494773886622738e+01
2.072607955780483380e+01 6.015840755433633547e+01 3.480191134725817648e+01
2.361330075849371468e+01 4.879342528635645238e+01 1.807430092333801497e+01
3.191489470765139913e+01 4.172620602879797502e+01 3.217078528267959570e+01
4.885793421487116461e+01 4.553951699382108131e+01 2.791176029847202145e+01
3.985949350895977261e+01 6.264666335925321050e+01 1.502887228726874724e+01
2.846322230322317992e+01 5.876587595441694845e+01 1.351872269865434006e+01
3.896930788276148405e+01 3.767097566581411172e+01 3.944943772588476349e+01
3.803134631636680041e+01 5.794768240255858416e+01 2.076963155584328291e+01
2.602493472612876957e+01 5.863923183184625998e+01 2.793005544460518408e+01
4.529322245355321996e+01 6.591511939217299698e+01 2.354500585007243174e+01
2.945437981132352689e+01 6.644770126749945405e+01 3.027327932927640219e+01
2.752750010708911077e+01 4.360031549565124465e+01 2.576506245515871640e+01
3.037960487442719071e+01 6.364542253124538007e+01 2.552774600652582038e+01
2.462865974054643203e+01 5.015714343945585085e+01 2.803823750848331997e+01
2.767481420949918913e+01 4.147223764454967920e+01 1.418416534324287070e+01
2.147952996935292802e+01 4.172791719065973837e+01 3.915595164845016996e+01
2.795027145910455957e+01 6.020086935874735445e+01 1.784717120372133436e+01
4.489873164985402809e+01 6.683011095840502946e+01 1.402809142304132273e+01
4.525424582012308150e+01 3.673357845344463612e+01 3.593775328679431880e+01
2.495550792355856373e+01 5.445511849147691663e+01 2.641762343450122330e+01
4.024486644432755611e+01 4.274288880260318280e+01 1.857089027016871796e+01
2.658954340817079043e+01 5.145781952224919564e+01 2.539812754032534414e+01
2.661999541784245693e+01 6.633115193195703796e+01 1.339240839984209330e+01
4.603667144146981371e+01 4.417351818721621726e+01 3.100017675000012929e+01
3.281948871302760296e+01 4.902902749906871094e+01 2.349118728457163385e+01
4.783357398699510554e+01 3.082525908694460171e+01 2.855584868555436273e+01
4.504073691312291317e+01 5.193235785298512042e+01 2.137054625956229614e+01
4.482389277153162510e+01 6.189789414018702729e+01 3.424773161532952770e+01
2.717849938759101391e+01 5.375672179333894718e+01 3.533196113545676553e+01
4.825694733461142505e+01 4.014694718778321203e+01 2.470361542961763135e+01
2.586332111722582283e+01 4.803096343198771478e+01 1.547962572544281379e+01
3.870742728072504946e+01 4.665405406554016565e+01 1.052856154585060011e+01
3.160859082478282289e+01 6.504833070860992450e+01 1.648432973469821050e+01
4.708213368674264387e+01 5.257021745133868507e+01 2.229215559160148175e+01
4.885834601802095989e+01 5.010540537572695996e+01 1.433657847283620335e+01
2.197692814534110184e+01 4.821661054206437313e+01 2.809790059551355768e+01
2.353651578474371675e+01 5.118387438294479352e+01 3.959235717171346636e+01
4.720179885561270794e+01 3.358520889521675912e+01 1.063148113380913884e+01
2.733445614864525908e+01 5.671701934349394492e+01 3.125466622995575250e+01
4.507881805753095250e+01 6.150220474134220439e+01 2.415762087255765067e+01
3.335539546334432970e+01 4.238642053619733474e+01 2.348244914849638576e+01
2.603291324564775877e+01 6.820773824481771896e+01 1.054038814516965417e+01
4.676350973137653710e+01 6.234518433392527470e+01 2.899493799810708339e+01
2.104025953986609210e+01 5.674505085328073051e+01 3.695936414019942617e+01
4.561194846553036086e+01 4.403945594998401702e+01 1.848344709051285051e+01
3.887839865666259698e+01 3.362389143155944993e+01 3.729573094398440958e+01
4.503640775755409464e+01 6.363442089195969942e+01 3.647785935041054728e+01
4.795637958317838923e+01 6.307201141800818789e+01 3.346456168966125233e+01
4.522636132678813681e+01 6.796512905150365214e+01 3.826237283195976602e+01
3.309579337726214732e+01 6.690310110027614598e+01 2.721874077090837929e+01
3.864308572232206984e+01 5.224830040020551536e+01 3.261483444453992320e+01
2.513655973576704028e+01 5.455579604576701058e+01 2.382452176278923162e+01
3.489035488141210806e+01 5.421865119918754772e+01 2.777127420440935879e+01
3.800110240311970244e+01 4.481692785814033186e+01 3.772630691760926425e+01
4.886779626140930333e+01 5.974885512625471762e+01 1.292905824945306215e+01
4.029172643327839864e+01 5.563976074730183541e+01 2.007966002779234671e+01
2.448074195717262569e+01 5.232815912774234590e+01 1.017076204465537970e+01
2.736795010587679400e+01 3.508976096779841214e+01 3.645037861208753327e+01
2.002620265171888292e+01 5.293063652140288866e+01 1.618344970189680154e+01
4.966816340115411776e+01 3.312132998990706767e+01 1.869786608891630308e+01
4.127198362469574988e+01 4.822557178396338173e+01 3.154369651759834170e+01
2.055678350490642714e+01 6.885952556834614313e+01 2.233328479999342520e+01
2.568352143270232801e+01 3.384645799463588389e+01 1.020795506308863665e+01
3.243866400256628424e+01 3.680649597681981078e+01 3.762871791471722815e+01
4.452093234703178126e+01 3.190259142874795018e+01 3.790095722975886616e+01
3.450664107108347878e+01 5.242433279239221378e+01 2.676428088722767740e+01
4.001375080158947384e+01 3.763959761167811280e+01 1.139765419239455824e+01
4.142307293548356029e+01 3.222243673483102810e+01 2.202326530974367813e+01
3.564887598160406412e+01 3.435845322280140834e+01 2.544898596803294311e+01
2.610854193631961806e+01 6.054295587062359374e+01 3.443737147374289265e+01
4.510678120817175341e+01 3.846771321202382410e+01 2.524312200269445228e+01
3.458683226089449647e+01 3.441669007083248744e+01 2.736496937859833523e+01
3.390782934737640630e+01 4.232004812616475675e+01 2.866088501281856082e+01
4.118350231405464257e+01 5.777453782648209568e+01 1.903143934745127197e+01
3.817522623160844120e+01 5.844981627593352869e+01 2.291557381246916947e+01
4.847838519155032344e+01 6.999877266456039138e+01 1.046681573569998491e+01
3.597165845484426683e+01 6.635769075547322871e+01 1.018772555250906464e+01
4.009835316234149616e+01 3.547949339607050234e+01 1.388599187015529068e+01
2.975369809314062408e+01 5.543358870996929255e+01 3.276996861965577779e+01
4.319147640110150377e+01 6.488551179082985243e+01 3.730735405755619638e+01
4.495139644651467847e+01 5.228382880423914258e+01 1.544269214074512853e+01
4.546458462364481079e+01 5.302102524871919798e+01 1.980190346133309376e+01
3.311029567841546850e+01 6.756823679727634158e+01 2.349230600654120948e+01
3.384316022983166761e+01 6.702244647538297784e+01 2.878470278610875255e+01
4.699004213190721657e+01 6.842135777064952151e+01 2.768919392288209380e+01
3.105186594452431592e+01 4.203276418179954987e+01 2.951931536127213462e+01
2.666855561809050457e+01 6.822768396798991830e+01 3.701086218269539074e+01
2.531560497901186224e+01 6.025017715771762283e+01 1.590113631098616409e+01
4.496238054877657220e+01 6.387729078504872149e+01 1.170053477056590729e+01
3.638062282051542695e+01 6.828677031147435628e+01 2.377273154147312439e+01
2.897457937794202110e+01 6.704851897460592625e+01 1.022755789444848062e+01
2.206914862043796077e+01 3.148777393302315630e+01 2.525217854659801375e+01
2.729920047218662305e+01 4.398326231995595492e+01 2.925286114077737665e+01
3.328355291887176293e+01 3.490468456668926223e+01 1.403285803412376254e+01
2.966192923731747300e+01 5.766173331708890260e+01 1.311398509193335471e+01
4.615664074592553590e+01 3.874693527876027588e+01 1.189682583053662768e+01
2.531779511019279738e+01 6.763269870940035844e+01 2.728333358073673409e+01
3.430020305342254261e+01 3.714738151565464364e+01 3.394222979212599967e+01
3.350866147991165889e+01 5.082055983635418528e+01 2.485953311303961044e+01
4.964296898321967433e+01 4.530450861807629082e+01 2.190823455844735790e+01
4.212234196756205051e+01 5.835488897915769257e+01 1.677749510804279609e+01
3.153791362325094738e+01 3.059728371112615619e+01 1.171102165142055007e+01
4.827367442451964052e+01 5.754184713149194863e+01 3.306244363204077530e+01
2.660059513956593946e+01 4.224946110106269970e+01 1.688026246678174758e+01
3.738430548420300426e+01 5.678205199538643910e+01 2.918552100392722792e+01
2.198076180314593131e+01 6.100855222682143619e+01 3.210029292581671001e+01
4.700779958421964722e+01 4.960697787887392707e+01 3.133047236841709449e+01
4.074489208661062634e+01 6.134801543934166546e+01 3.147924533297905469e+01
3.914789730976183790e+01 5.690791176329760503e+01 1.545653318759967476e+01
2.708419279429907789e+01 3.691962748020864638e+01 2.631653892145041596e+01
2.139559255976826080e+01 4.646150847198933320e+01 2.701631709318006358e+01
3.692530747555999682e+01 4.003365864213402858e+01 2.037540682599718878e+01
4.292519935420683197e+01 3.235554201002893393e+01 2.082154632244855819e+01
2.222608756721746914e+01 3.814686972665379017e+01 2.929439756071645462e+01
3.323553796149344208e+01 5.291940078618004861e+01 2.991831540123809319e+01
3.259424875290550716e+01 4.399368550816791412e+01 2.726320730373230816e+01
4.189448828484254506e+01 5.920932957829420928e+01 2.593499056594738050e+01
2.707081827186225098e+01 3.217758608418237287e+01 3.005602049236219031e+01
3.639234847517101912e+01 4.087699530597267739e+01 1.127379580088721056e+01
3.094922702044767959e+01 3.909003855237936875e+01 2.733981247302488171e+01
4.349823146794153672e+01 4.206295358564636899e+01 3.489532543607514015e+01
4.214043014855840852e+01 5.776578115906849575e+01 1.894506353109023422e+01
3.942532605462205453e+01 4.218616265547490940e+01 2.704963282176710138e+01
2.645864051073279910e+01 3.759799966451108588e+01 2.832837166998750789e+01
4.956405884995916011e+01 4.119520392977772616e+01 1.885758525885684733e+01
4.282767258944573285e+01 3.518611565448256329e+01 1.420855078215669209e+01
4.441106508168055456e+01 5.915392153654553908e+01 1.365932529901756709e+01
2.944695150591988408e+01 5.576929406759168018e+01 3.221633583813600410e+01
2.896736660243769279e+01 4.805127079071451845e+01 3.778767138364595723e+01
4.652904078031861701e+01 3.091917444501764933e+01 3.466635412418117568e+01
4.931172008049004774e+01 3.536307154036023803e+01 2.765394443311680561e+01
4.387578375437531975e+01 6.164795170902218757e+01 3.397954881174732833e+01
2.093968829122470154e+01 4.850683012868879018e+01 1.942136307855382071e+01
2.687636379774059847e+01 5.473835811484223512e+01 3.390312427139306806e+01
2.793901282949993004e+01 3.981121470815531893e+01 3.500363192710628368e+01
2.857994601250567612e+01 5.403671513258571935e+01 2.042549387056318366e+01
3.003153767525369489e+01 5.848348924786522929e+01 3.523064347937807383e+01
4.455567662045337585e+01 6.013242438809679413e+01 1.751023659024122381e+01
2.449005926245164488e+01 3.451127089392266356e+01 2.251211330167572910e+01
4.713979888151202147e+01 6.194437103578391657e+01 3.693600394107532736e+01
3.269310533138863661e+01 4.381769219456522535e+01 2.965610178189067625e+01
4.431226237355431152e+01 4.653526740528590722e+01 2.891441313533057311e+01
4.701910925549529452e+01 5.660887231668539954e+01 3.969402599960426414e+01
3.557102261834397439e+01 3.600464788673762939e+01 3.922697122087426180e+01
2.430866863628227037e+01 6.544513380889515020e+01 1.955098469053093879e+01
4.408494331551700185e+01 3.926414706147080835e+01 1.666344513584613196e+01
4.761750079142540670e+01 6.627131887994460158e+01 1.999692964578856191e+01
4.071817579021834632e+01 6.625045646913457631e+01 2.777351292654170933e+01
3.517131110175731123e+01 4.216189707601354542e+01 1.031519448504306702e+01
3.020428437521118781e+01 3.837568657048920073e+01 1.737356563766417850e+01
4.900758910267200008e+01 6.704045016524513301e+01 2.829814025898084040e+01
3.019545374252041725e+01 5.999249645796270869e+01 3.135546124521554390e+01
2.139859715835922316e+01 6.710830852396414059e+01 3.330821187723598342e+01
2.262938217776120453e+01 6.353884621701184443e+01 3.784785220071042033e+01
3.079005037454615135e+01 4.818248314295858847e+01 1.564838791937708251e+01
3.389274858019789605e+01 5.381676447150470466e+01 1.960352763537530763e+01
2.377255555599118253e+01 5.590209569922794941e+01 2.693718941101345266e+01
3.455054133645045766e+01 4.960531000020439762e+01 3.190818656448449886e+01
2.850437620458736632e+01 6.410427928827540711e+01 3.728233821722503905e+01
2.693051477920714731e+01 3.039556478711558185e+01 2.136925736516073115e+01
4.538179645058320943e+01 6.456329033483653745e+01 1.302490623027514616e+01
2.177676535525953128e+01 3.113500160975152298e+01 1.371249422720140032e+01
2.095248865741723421e+01 4.158045644051451006e+01 2.086462818828336196e+01
4.413132286349625844e+01 4.508130730427224364e+01 2.653855957134529930e+01
2.799794774933345209e+01 5.423285864105675813e+01 1.324823327817088447e+01
3.111135550486013912e+01 5.399366086313324331e+01 3.370242689173572614e+01
2.047555390939191966e+01 3.240765055987833421e+01 2.135737640479147359e+01
4.270688925857734830e+01 6.626386424015969112e+01 3.103441286626003048e+01
3.362831166403987737e+01 3.390811382411391861e+01 1.596800773706773491e+01
2.435041030050803101e+01 4.515823049691927338e+01 3.000819426504727261e+01
4.503002177693128516e+01 5.359354304188824614e+01 3.816442971961364350e+01
3.291625012519124738e+01 6.410646287991335157e+01 1.819261078249328989e+01
2.963380147730390135e+01 3.651148655220487171e+01 2.747762134962387037e+01
3.362322500077215892e+01 6.889233576435277939e+01 1.341202708123424614e+01
3.245939243448236766e+01 6.766421375615198031e+01 3.447095565438233677e+01
4.133274150981768003e+01 4.043353462817529476e+01 2.918097094081980458e+01
4.857586019957891210e+01 4.389678237239035496e+01 2.148822807764565468e+01
4.569243861528136108e+01 5.716426870624241730e+01 1.927353318125807391e+01
2.985345104926627613e+01 4.181773259360625161e+01 3.098692831096145994e+01
2.810823918483706763e+01 6.059343287697128488e+01 2.565964970627171482e+01
2.707391455431526950e+01 4.138641527477250293e+01 1.343704392090373467e+01
2.052857333058561906e+01 6.247981636327962462e+01 3.632906973076381973e+01
4.534906699702607824e+01 5.576979699054314921e+01 3.629987934123953863e+01
3.128195442429259998e+01 4.451041075669832736e+01 1.289631731285291139e+01
3.091383019440415580e+01 5.813454545435239140e+01 1.756756846488744017e+01
3.075489809694354904e+01 3.237406633383358212e+01 1.042987118014870873e+01
2.677510040025299531e+01 5.697446585583546863e+01 2.724581489819589564e+01
2.006910910938752934e+01 4.448881747533241082e+01 2.902991663195879823e+01
2.402272273629710853e+01 4.374860293297728475e+01 1.275609683162753960e+01
4.677336106136813498e+01 6.712325327650707152e+01 1.233957051940413052e+01
3.510850767444210163e+01 6.845068133975713920e+01 3.151569576897107439e+01
3.598002316328469163e+01 3.216408863352333469e+01 2.322111178193170389e+01
3.138510518440828889e+01 4.815855004702617492e+01 1.115574296518274622e+01
2.805203179522204238e+01 5.869086539423050652e+01 1.540621526909863270e+01
4.324381063539820502e+01 5.725690208920210011e+01 3.560615240046966790e+01
4.003432835657358879e+01 3.151334934716755143e+01 1.248959519767484139e+01
4.787528145748704134e+01 3.619664746943167444e+01 3.686637548758232441e+01
4.466155581716082423e+01 3.819787250030625358e+01 1.002281545427013931e+01
4.071285600041958475e+01 6.605123993565567275e+01 3.182328412735451195e+01
4.639508181307810020e+01 6.398574831511881911e+01 1.643610465422020894e+01
2.666978346248416543e+01 4.182998426473761810e+01 2.962926550260868197e+01
4.739245223563577269e+01 6.145809521623667138e+01 3.302799483981635831e+01
2.895046809255882181e+01 5.771245094610740978e+01 2.005822907815842981e+01
3.036185288082657863e+01 6.609237306683452573e+01 2.408747753817009851e+01
3.187416592989196218e+01 4.730296761089967106e+01 3.745241380941498477e+01
3.331557545604238868e+01 3.968053872694484596e+01 1.239889129207690743e+01
4.801892017886445529e+01 6.764570826676572324e+01 1.474731162511775295e+01
3.212318322799337977e+01 5.805246503871832431e+01 1.967754204605832768e+01
2.310870859342238859e+01 3.933326380863250904e+01 1.757309877472407322e+01
3.024457025183430048e+01 3.445187563864524805e+01 1.758212083444136198e+01
4.215822742726572869e+01 3.599129440886497378e+01 3.010249508653600614e+01
2.134867174721672001e+01 5.912363839624104855e+01 2.472764643040185106e+01
3.074074047849600788e+01 6.620345869445222320e+01 1.409537797077129540e+01
3.839070050310906623e+01 6.629016188268580834e+01 1.660861885708643371e+01
4.382740427197816757e+01 3.968715212297574624e+01 1.019029373873928712e+01
4.169998204699042788e+01 6.867734520736807724e+01 3.707575996788614248e+01
4.106295946038260070e+01 6.382305533333241243e+01 3.853403398982035100e+01
3.060285426954714083e+01 4.400402169279627174e+01 3.385398800800142283e+01
4.844156787358392080e+01 6.140230272785135668e+01 2.610553543852399727e+01
3.009621142239564762e+01 4.287619940419037334e+01 3.526477296949145313e+01
3.768242077035480975e+01 3.052997798613688119e+01 3.543720583843927585e+01
2.538460910659082614e+01 6.786758462644485235e+01 3.709741696521698628e+01
4.636831823750349457e+01 3.465897354121855045e+01 2.337681886588600833e+01
3.854236572445839215e+01 5.565239375374738984e+01 2.192343123882189815e+01
3.873084343156831721e+01 3.728481807566380724e+01 2.459777838102200676e+01
4.389278056939389927e+01 5.727839872762735496e+01 1.001228685752764136e+01
2.213594524370704519e+01 5.134345643279836224e+01 1.852118926729947646e+01
3.310087837849881254e+01 4.172146294196900129e+01 1.874907172172384406e+01
2.330144672202951739e+01 5.688056261370130073e+01 1.118357038796534653e+01
4.060675666120391014e+01 4.115300029620222233e+01 3.872285002863644365e+01
3.533934088463792733e+01 5.260620232167816113e+01 1.325335090450194819e+01
3.186093739506878819e+01 4.039545843923584556e+01 2.698416006213983920e+01
4.760957362460405307e+01 5.005326897082424864e+01 2.757340017878235727e+01
2.892179812284915030e+01 5.019243842728599958e+01 3.526559519536485254e+01
4.789679203960803022e+01 3.608213437911492605e+01 2.588895874382752993e+01
2.943472630669434764e+01 3.764391280094783099e+01 1.951482898474794325e+01
3.011671194608640434e+01 6.270126164465475682e+01 3.996201727388943681e+01
2.074437405337648954e+01 4.442676690881563673e+01 3.415570285243101267e+01
3.991980476960635116e+01 3.572578959761231232e+01 2.111458679777061676e+01
4.094303008992127246e+01 4.221037617315792545e+01 3.162286929878678166e+01
2.729380659723923230e+01 5.396606867642387328e+01 2.597463296966576607e+01
2.075372421716030757e+01 5.314605998654985086e+01 2.160435796301374367e+01
3.234048292418418669e+01 3.576028190434450238e+01 2.353901165771126358e+01
3.558638069449858676e+01 4.292891962366600467e+01 1.130864084928340318e+01
4.126848000974957387e+01 4.508196117265433145e+01 3.573714910295725389e+01
4.759369548318165499e+01 3.438512708111783667e+01 3.758557423459840408e+01
4.135875823040079524e+01 6.934161663960914268e+01 2.333667328494227888e+01
3.074317685913321441e+01 6.795702323926883537e+01 2.922843995222687141e+01
4.808459246769100304e+01 4.760980426292670131e+01 1.467999250420568558e+01
4.559363820206926476e+01 6.695519232393081666e+01 2.589408455648142393e+01
4.324341290620009914e+01 4.718188835500050970e+01 1.063597434747156711e+01
4.294130350367607463e+01 6.420319579779479113e+01 2.313144022910589115e+01
4.428941424464036913e+01 4.292099864897277683e+01 3.548338310443988064e+01
2.972833742717357808e+01 4.568742789675298610e+01 3.976910058950265636e+01
4.688140423360892584e+01 5.655603479056012617e+01 1.364928081423104622e+01
2.111213639731983704e+01 4.321915074837312432e+01 3.573620808920331626e+01
3.204642109041907361e+01 5.085096379362775565e+01 1.661567152558113136e+01
4.092576838918603244e+01 3.302738716067133140e+01 1.096779339621264349e+01
3.656898631758834739e+01 5.646283860981795755e+01 2.369813680826475633e+01
4.034538820266051573e+01 4.680661033444179964e+01 2.672469902202592351e+01
4.979914805745166717e+01 6.054512480889111714e+01 1.471788351303253606e+01
