6.014260305637565551e+01 6.060595004707697342e+01 5.842654412897157101e+01
3.201595573413030849e+01 5.208013018385302217e+01 4.175685045972669940e+01
5.319386158641634665e+01 4.099433125690897839e+01 5.568399770072554844e+01
4.593178994346546062e+01 5.389101228964761248e+01 4.582341587372808078e+01
6.142143365702504809e+01 3.668233991971325736e+01 4.226004265365569523e+01
6.038590686315528444e+01 6.285096001749140981e+01 5.189153459444274574e+01
5.967718571219901946e+01 5.514539522664452420e+01 4.901706911184498239e+01
5.078656283332058052e+01 4.336400161772397155e+01 5.039085640145722778e+01
4.096488185018334605e+01 4.618254874466244075e+01 5.028204423299762738e+01
4.368718285101170551e+01 5.132149585758302379e+01 5.790319219912613846e+01
5.782835149154907128e+01 5.546933276690331382e+01 4.584738653201149106e+01
3.619855453389643429e+01 4.571701922042895916e+01 5.117940058121316582e+01
5.692608853799306701e+01 5.779091433592170546e+01 6.003756601365929413e+01
5.527056626815586071e+01 4.951077525183467998e+01 5.409065537247927580e+01
6.040690389460867493e+01 5.288070627255029166e+01 3.643259594532648293e+01
6.157560255071125255e+01 4.788674742015746233e+01 4.724415423199987885e+01
5.357333247254888420e+01 6.596683150242034799e+01 5.375949906600914119e+01
5.744799602042552067e+01 4.974989375324380347e+01 4.178626292340038617e+01
5.824494988407757745e+01 4.544752497189209350e+01 4.227607334704374864e+01
4.603734941708520267e+01 3.187355985940044789e+01 5.084924167292276564e+01
5.630697184908463981e+01 4.091892122998335424e+01 4.262658750198377788e+01
4.472206518528033570e+01 6.220230110448861183e+01 5.357403178552699075e+01
3.931951506129883711e+01 5.179758709165616892e+01 4.741150070361783975e+01
5.543745061391338425e+01 6.377430119521432061e+01 5.051977897755550373e+01
5.438626914115952360e+01 3.332398189704357350e+01 5.230903991522114183e+01
4.530931374571437686e+01 4.417948861441550434e+01 3.297101408313374549e+01
6.527959558086088521e+01 4.740919089105659623e+01 4.167068511154224808e+01
4.649194156687026691e+01 3.331359373272182722e+01 4.277123795891192515e+01
6.592381425590278354e+01 5.624507184870883947e+01 4.715446223884691790e+01
3.167328966309177574e+01 5.224648058929375338e+01 5.041263436110718743e+01
4.898031290179851993e+01 5.002468516002952725e+01 5.254177627164895625e+01
4.973056980542821748e+01 5.617932530499268040e+01 3.933527005590539005e+01
4.079353471203119597e+01 5.651763659434541864e+01 3.923516970209684729e+01
4.240667048789955373e+01 5.870476993500250984e+01 5.010986118968907732e+01
3.179425081401553399e+01 5.315051668105085980e+01 5.123696394117153119e+01
4.881622372297965740e+01 6.548605981239322205e+01 5.611553958790942431e+01
4.403442008773770056e+01 4.090228908706922084e+01 4.298661113729388461e+01
3.671073288223634989e+01 6.392551708167900415e+01 5.379838696848548096e+01
5.488958868640732192e+01 5.957727076630473562e+01 4.548109807961100159e+01
6.225655878939831211e+01 6.381333476796153548e+01 4.693492982752844966e+01
5.417761689142616888e+01 4.751701466795499584e+01 6.506751850656482361e+01
4.373059607673960159e+01 6.478954221685543757e+01 5.012606899074000211e+01
4.241758638963798234e+01 5.180764913431655572e+01 3.899105287849712198e+01
5.100838736188188705e+01 4.728495763124064410e+01 3.057739053332301182e+01
6.330807654217080938e+01 5.588975095928534387e+01 5.305165629985074816e+01
4.791333961146298037e+01 4.251481538222662238e+01 4.253644854033380795e+01
5.285897321342758204e+01 6.071576778822878850e+01 6.499704914329988981e+01
4.901807764250322208e+01 5.467721897930648822e+01 6.701370358175554998e+01
4.806377382403353238e+01 6.490014784961390149e+01 5.930717627886233601e+01
4.671893718067438073e+01 4.301448126959347462e+01 6.001837495414429213e+01
6.321914999056845375e+01 4.080763135301972255e+01 4.774604663969746809e+01
4.737713712347449047e+01 3.331081558050089342e+01 4.626165345677495111e+01
4.373144152664097817e+01 5.412906688120106224e+01 3.428224716270341332e+01
3.845550706125000318e+01 4.289565051406513163e+01 4.097518656668081150e+01
5.155355786738632418e+01 5.284022342378810322e+01 3.351525367496391539e+01
4.504721485390603419e+01 4.985655925254606302e+01 6.274288931876341735e+01
3.616087749187865086e+01 4.771859951140423561e+01 6.371240915102985980e+01
5.455803735863569415e+01 6.007473203296311937e+01 5.585617424071001835e+01
5.342288002112081102e+01 5.558619989771480618e+01 5.442592455097990012e+01
3.259958017275502584e+01 4.600673571192503886e+01 4.502169829451292316e+01
5.561143116904121086e+01 4.380155510472554425e+01 6.648971149440673400e+01
4.107195897890684222e+01 5.734240685373704594e+01 5.962817654622944019e+01
5.365653799623251530e+01 6.078224373395642033e+01 3.933583532945588246e+01
5.719841867651379630e+01 5.533389874026541833e+01 4.913154987390805672e+01
4.552709092970342653e+01 5.690965876766734510e+01 5.608809663054261563e+01
4.515754182444684517e+01 3.448686866644420235e+01 4.724713844754879943e+01
5.417894320414200138e+01 5.958141462832653446e+01 6.253098154307244272e+01
6.725741302472054883e+01 4.423802305339940943e+01 4.847266009654999408e+01
6.327208359868324550e+01 4.756151389944061947e+01 5.306907533681047084e+01
5.141632453157062344e+01 4.215738789599473790e+01 5.046353665695776414e+01
5.870945378791640223e+01 5.698416075758206745e+01 3.792586232942520041e+01
4.281666065972250834e+01 4.074341731659563237e+01 6.391149354727347998e+01
6.824299512267603518e+01 4.740073940033175148e+01 4.796172311784250297e+01
6.861024366618795511e+01 5.322605329827696607e+01 5.406295556098088184e+01
4.579755975491433162e+01 4.308091947375643826e+01 4.116925882543904436e+01
6.515828000502918371e+01 5.561080851378414991e+01 6.102465780229031367e+01
5.773571310032615855e+01 6.279745371238048790e+01 5.182948542141603099e+01
3.637403667239927074e+01 6.045569363585007494e+01 5.116667170483905380e+01
5.035184373223538046e+01 5.652632097684882950e+01 6.776395903427531664e+01
6.664773905285773026e+01 5.220697693786687665e+01 4.345738357491245552e+01
4.152932862887507071e+01 6.321341155967778036e+01 4.969594530926787712e+01
5.528515571748364721e+01 6.680110273572435631e+01 5.624131202041039757e+01
3.811147900402087885e+01 3.658262789917760216e+01 5.620886051017299678e+01
5.108865871016614335e+01 4.092083261439426423e+01 4.151447255203586195e+01
6.634410119228607527e+01 5.406481445198751601e+01 4.676416236636894297e+01
3.624930997498226048e+01 5.531295350665787680e+01 6.055380634124838224e+01
4.504527814270755925e+01 3.478906143882674229e+01 5.707263214494606984e+01
5.860921571232410088e+01 3.799208287843845966e+01 5.579394864459906955e+01
4.250427747378657983e+01 5.279110761859875112e+01 4.641383203461203522e+01
5.710964111351759698e+01 3.989643304494858711e+01 4.657628799268685071e+01
5.912978869371927715e+01 5.755105439447176963e+01 5.713094053879910206e+01
4.131929477458859168e+01 6.647185937816072965e+01 5.576666218981599599e+01
4.661122021817340055e+01 5.025509561090013477e+01 3.215420749974911985e+01
6.177891466391557174e+01 5.088875242571882040e+01 3.696186494316043536e+01
3.623138876349445070e+01 4.141790077609110199e+01 5.863474936222002754e+01
4.672964992836726594e+01 4.039237971793047421e+01 6.489528857685050411e+01
4.163216590699352082e+01 3.992648697206954012e+01 6.511217664241475234e+01
4.636547251982798912e+01 3.449011879853654960e+01 6.126366026088980732e+01
5.215354049714219542e+01 3.406626669888501624e+01 5.859392138539415384e+01
5.683731842576998616e+01 5.640128411408120712e+01 6.495860720834137680e+01
4.965551261740937861e+01 3.352101293896760126e+01 5.342683589371196717e+01
3.931277542983258400e+01 4.265642924427660887e+01 4.711201591642718256e+01
4.810712338629087270e+01 6.132822311166190588e+01 6.570527284471653218e+01
5.093486226290417562e+01 4.107204603427686607e+01 4.724732503403766515e+01
4.007244317971285597e+01 4.331979738899174492e+01 6.533781606339344705e+01
4.275266414197644593e+01 4.203461392919246720e+01 4.296166610711008360e+01
6.982219996272327478e+01 5.034481958121917700e+01 4.902416259308078850e+01
6.712345752458735149e+01 5.407758106232139994e+01 4.996284445666503160e+01
6.373593006524112070e+01 6.158404761512896641e+01 4.214078773494158980e+01
4.885892152774021469e+01 3.334141910848082802e+01 4.955527136358689688e+01
4.058042917955574325e+01 4.231762511524520676e+01 4.986881389096208039e+01
6.339248770705118119e+01 5.755246804193623689e+01 5.955338736165889202e+01
5.109285509462878849e+01 6.146137949376032594e+01 3.755187654405135333e+01
6.056845026259207998e+01 5.792973662021897496e+01 6.459514170211502915e+01
5.030874342859053883e+01 4.560458875432360770e+01 4.975964640729936406e+01
3.948581375729036580e+01 4.265121426860432052e+01 4.186692198438473866e+01
5.018685666999155615e+01 3.911372369273338023e+01 6.478891053436520053e+01
4.894857858519058169e+01 3.384351920610044573e+01 4.494501794628605040e+01
5.421298026396100056e+01 4.887685876930690654e+01 5.757529248925530396e+01
3.587963045342369384e+01 5.363983449218559230e+01 3.742560002328861657e+01
4.552892960088169616e+01 5.961841475796493484e+01 3.984674161341883547e+01
6.260852381800404487e+01 5.583297919511761620e+01 3.793931603201756531e+01
4.699407200315069844e+01 3.733326273997973033e+01 6.517822861238323640e+01
4.418984555022296945e+01 3.778576865707573518e+01 5.850682435709410356e+01
5.972670079083597727e+01 5.063324733793987065e+01 4.172123229134827227e+01
6.867640545572791666e+01 5.355005026416055358e+01 4.601703812676522176e+01
3.415414884051014610e+01 4.600379466175837706e+01 4.062020194749293722e+01
3.787017438648060619e+01 5.157997571459942776e+01 5.453530694058846962e+01
4.569343915559179692e+01 5.517761961629802414e+01 4.620799125788651907e+01
4.625384462599551227e+01 5.463365504611255830e+01 3.782645143150919864e+01
6.021411197698627404e+01 6.125507360492596831e+01 3.829131767256129848e+01
4.165917261189176202e+01 6.077307042691361971e+01 5.107357560809959551e+01
4.883139802843930966e+01 6.109015590565468301e+01 6.128669955278584069e+01
6.086252362939138294e+01 5.241934419017542268e+01 5.481303128791815737e+01
6.031588437849067930e+01 4.535721445261815177e+01 5.675731994636426236e+01
4.913157278345082801e+01 6.241612473343283085e+01 3.648543491962335850e+01
6.134524689136564746e+01 6.240925099588459091e+01 4.229399078447740834e+01
4.458161696497370485e+01 5.389902126258869686e+01 6.164571728624320457e+01
5.445337635420387556e+01 5.501979894511904945e+01 6.528824156814667390e+01
4.802577740738232137e+01 6.210418991589310167e+01 5.059692029690564397e+01
4.608640010954434274e+01 6.398649155734646854e+01 5.692457970015905033e+01
5.513381472307238340e+01 6.396256089331837558e+01 3.728787734762511263e+01
5.209794543952443036e+01 5.297941825815895101e+01 4.373072576297628444e+01
5.036836375355148476e+01 4.092821873112245612e+01 4.268739952781810132e+01
4.457990184095444164e+01 5.106939185170986661e+01 3.654965092410623839e+01
4.350235915491050775e+01 4.871572843128010533e+01 5.548085577848297589e+01
3.669669076318351131e+01 4.573225595650066566e+01 5.095683279900454465e+01
3.950668924050291508e+01 5.711201450405781799e+01 4.907797725811715850e+01
4.411201609361368980e+01 3.840728193929975021e+01 3.689748245904412016e+01
4.938906540561650615e+01 4.970629147230772560e+01 5.514157525798719917e+01
5.585557003647889474e+01 5.606272248099654121e+01 5.113276423159830131e+01
4.501894034096100938e+01 5.491891107052899912e+01 5.733481334595673928e+01
5.023100512200604584e+01 6.173750393007873072e+01 5.166253307040265952e+01
5.831704810602893474e+01 4.178577440537117127e+01 6.070524522739712125e+01
5.288286623857064939e+01 5.068649007839174203e+01 3.765582572985669429e+01
3.563634585597930027e+01 6.005266281290646191e+01 5.654346423209756267e+01
5.820699039821116827e+01 5.006972390888512336e+01 3.777389698638376103e+01
4.578334955555312291e+01 5.262406981598001465e+01 6.581978119214927858e+01
4.479586881309226243e+01 6.297281810397276303e+01 5.979531904848626311e+01
4.091732903128657739e+01 3.737258912762435870e+01 4.790429441481951756e+01
3.653313816601537667e+01 4.570027535211791303e+01 4.013946710078608504e+01
4.487237827480093699e+01 5.163593521055133095e+01 5.434038725926918545e+01
5.713978027462022169e+01 5.892058419093155663e+01 3.460225175455827440e+01
5.396965101394486197e+01 6.643922310823066368e+01 5.749729990814505243e+01
5.902068974170373394e+01 4.693762065769959690e+01 3.598450397362552877e+01
6.662631772901882243e+01 4.740646638726517637e+01 5.564675826444579343e+01
5.197232488047463761e+01 4.953306814877221598e+01 3.407110167443031656e+01
5.712885830685782196e+01 5.270797179459223258e+01 5.640167856434664628e+01
4.485261031000272425e+01 4.593846481598856712e+01 3.775677305255298677e+01
4.985198556708603235e+01 4.876633648483322503e+01 6.461730405738637728e+01
4.394229290076896177e+01 5.158609792994712961e+01 4.019739869279172240e+01
5.933326577124383761e+01 3.774023318749878086e+01 4.949787679476160918e+01
5.721768639871596207e+01 5.118401316036678139e+01 6.616429551015710331e+01
5.787618711016021678e+01 5.567254234496602550e+01 4.121674321475438063e+01
5.283175283587826243e+01 4.477905313365424433e+01 3.744360760268298094e+01
5.449635468476288480e+01 3.114197421171297364e+01 5.406356346069831886e+01
3.410149852441109886e+01 5.040631086850348197e+01 4.037761819082800230e+01
5.996985801926192039e+01 5.746748855239075482e+01 4.255982942566806315e+01
5.826614344460553241e+01 5.025929456338415946e+01 3.703525808191031388e+01
5.940279064261855524e+01 6.088442593829047667e+01 6.298115524278095023e+01
6.068142615644729432e+01 6.130056527599607819e+01 4.542669449194030307e+01
4.881808176771298236e+01 3.140618420675754763e+01 5.388732188996612393e+01
4.967787402156812249e+01 4.582023098591147203e+01 6.334767007183498322e+01
4.557721207428262744e+01 5.534283961953352105e+01 6.771776777475153608e+01
5.165863187251036237e+01 5.759059625861156917e+01 5.152902395788315459e+01
5.127180541261956392e+01 5.023450653691232759e+01 5.187411395151867310e+01
5.835944588181677517e+01 5.897979510889916099e+01 3.824561353523879603e+01
4.010575605927076026e+01 6.598676383448281513e+01 4.545533516311080291e+01
6.122342256302844987e+01 5.144675306952538563e+01 5.163422569911158178e+01
3.671010857715261011e+01 6.468053248064597938e+01 4.993741263495280691e+01
4.779858778680578979e+01 4.352063923089131237e+01 3.534702346408759865e+01
4.595613767723904175e+01 5.980214409704775136e+01 6.241994009483929062e+01
3.961977547935282473e+01 5.552543903019899574e+01 3.724998197504276476e+01
3.520439604981066140e+01 5.199855593628783623e+01 5.237319198427227462e+01
4.847862012633268591e+01 5.538984316722109469e+01 3.314865194615217092e+01
5.542656571874334759e+01 3.600234156015262954e+01 4.104495785921385931e+01
6.041232756813607097e+01 5.172569214627390721e+01 5.853596357242153658e+01
4.745876391280676643e+01 3.542883472184455940e+01 6.178017090148806290e+01
5.042046955875041192e+01 6.728461265810076952e+01 4.744090930406085249e+01
5.298248016619739786e+01 6.615954018052140384e+01 4.063391546375662244e+01
4.878476207710276924e+01 3.563685705623615974e+01 5.978357823492653722e+01
5.367607740827523344e+01 4.256035018405912496e+01 6.169192755449519439e+01
3.392905991025401136e+01 4.693650421295107122e+01 5.374243390169785073e+01
6.529180024012426031e+01 4.360330742072792276e+01 4.938797111262582007e+01
4.366331248832496925e+01 4.196741330739748577e+01 4.861681966829186763e+01
5.606273077224918922e+01 3.183581094807223977e+01 4.529319933946591448e+01
5.112438594413966086e+01 4.042831845985992345e+01 5.331955025652617053e+01
6.016167188409431787e+01 4.816456890763356569e+01 4.691830411139885371e+01
5.241685333348590348e+01 4.684544309068640899e+01 4.343782613325760877e+01
4.700011602077685069e+01 4.279652279627913458e+01 6.766138257713456028e+01
5.946352307644485791e+01 4.251934048758509022e+01 6.059212067820002545e+01
3.934107276867299419e+01 4.624719993787729067e+01 4.612932046117816753e+01
4.862277111830465515e+01 5.168051070771657862e+01 4.591064268024565109e+01
4.606094238811737540e+01 3.493473270833302990e+01 4.296245020444281693e+01
5.916089639015837776e+01 3.332922166502945061e+01 5.581053110376576143e+01
5.262877360031475860e+01 6.647894803869803582e+01 4.713906843940750235e+01
4.853891178393531192e+01 5.287671205474552494e+01 6.757247861618242268e+01
5.004379321713417994e+01 5.073500947445231901e+01 4.885363774059305797e+01
5.266449924674252259e+01 5.238936434774065276e+01 5.065441399675272294e+01
6.377473046472817941e+01 6.166211097127436602e+01 5.735108974122322678e+01
4.604070995462231508e+01 4.891464547892102388e+01 4.568244692482570457e+01
5.186647926146623888e+01 3.288587273863235794e+01 5.194620516444796721e+01
3.894161937060086842e+01 5.212765261799198413e+01 3.830658495848820166e+01
4.002006393225976666e+01 6.208060268963223649e+01 5.256131929977306072e+01
4.091216355638503899e+01 4.271729504378121334e+01 3.376968212572472794e+01
4.833457608007184803e+01 6.672915525488301114e+01 4.797074122346066360e+01
5.454286083630682924e+01 3.774452913302363299e+01 5.520040766128641252e+01
5.043605565320180517e+01 4.567524396300836997e+01 4.500307341819471674e+01
4.235779738462090194e+01 4.838330319435797122e+01 3.774722502035737648e+01
5.676219365402835138e+01 5.345044590577248300e+01 5.711283331225220650e+01
4.734675684936959783e+01 5.356033126561984403e+01 5.126328704509474221e+01
4.346282632904429022e+01 4.004656017950314606e+01 4.545297772847712992e+01
5.372222591942146153e+01 5.905284254447749959e+01 6.017386766442695034e+01
4.170996944448700816e+01 3.730188715372716501e+01 3.818377219696175473e+01
4.828741892938855074e+01 5.920331331010273601e+01 5.364509205885921261e+01
6.148969791589160394e+01 3.818500297175962999e+01 6.074460177358691482e+01
3.326796576894960111e+01 4.183319978891410074e+01 5.686860419821243795e+01
3.310067161504556310e+01 5.164006751529294093e+01 5.088823370628748677e+01
5.364636319092422667e+01 5.767618399194627443e+01 4.923096478667161335e+01
4.235092708374553894e+01 4.138918455281191910e+01 6.499189664769224350e+01
6.603152077753961180e+01 4.581078942719251046e+01 5.508907263661156151e+01
3.438002603536683921e+01 4.976980847826115451e+01 4.763763721854322597e+01
6.117880329294835917e+01 5.649367740506939839e+01 5.594159707610323551e+01
4.784687315878611003e+01 3.222705381988502893e+01 5.665631456790605114e+01
5.529514038238501428e+01 5.631965072758725910e+01 5.241272704369831814e+01
5.817657498833445118e+01 4.724727976406873609e+01 4.604070555327123060e+01
5.789859210903473752e+01 4.737874156728676667e+01 4.588920839725820855e+01
5.639980156644368492e+01 6.244128355236545502e+01 4.622671670150545253e+01
6.283927290100226060e+01 5.738336586113909021e+01 5.888478892241323592e+01
5.309815988097547290e+01 4.601397942070296665e+01 4.509765732387770498e+01
5.907804617249726675e+01 6.137843916605899608e+01 5.344370172916143957e+01
4.200348225216379205e+01 4.503382106840061283e+01 5.153135240014653817e+01
6.278002858651204576e+01 3.893903441280656352e+01 4.474375544445122443e+01
3.979255256098295490e+01 4.736916187235765818e+01 6.229794777007575846e+01
4.612655355176973160e+01 5.879948180654302803e+01 4.777432948148553038e+01
4.383816099906289310e+01 4.075094555024805487e+01 4.342251692190255596e+01
4.695384772598739431e+01 5.101383964451179054e+01 4.158016769973832538e+01
5.450494946698132281e+01 6.692620857326933503e+01 5.102835260043699606e+01
4.871907883348585955e+01 5.378267062704258450e+01 3.383681694272333829e+01
3.676635426978408816e+01 4.417645219223498287e+01 6.301026336450015464e+01
3.932074236369597031e+01 4.768884647650269670e+01 6.296350071624861044e+01
5.157893723806258635e+01 6.186255715306200642e+01 4.050690006273055843e+01
6.840503981995307470e+01 5.464913358633960172e+01 4.785705908510828976e+01
6.348853704876993476e+01 5.056444709084272660e+01 6.088370269645446342e+01
5.321725828289473270e+01 5.472280438484931153e+01 4.104306252965186275e+01
6.173508215296513413e+01 3.691597065657297350e+01 5.525614246220244041e+01
6.280207890676726379e+01 4.003360875139397734e+01 4.593656816460077863e+01
5.620257631966847356e+01 3.729264235429970853e+01 4.833101478314372201e+01
5.472109453577199645e+01 5.334534822546318367e+01 4.503316708473874286e+01
4.470946679211225216e+01 6.076334927096915806e+01 3.913538264088391827e+01
5.350689309929799009e+01 3.577036541754795707e+01 6.259220743810218579e+01
3.413657796791065380e+01 5.407297180083225641e+01 4.988970289856982276e+01
5.101298291381850447e+01 5.027862857003464114e+01 3.596185666795688007e+01
5.915172794422248614e+01 3.417541922738932669e+01 5.039800609516564833e+01
5.817338531112763178e+01 6.141377706412727377e+01 5.522085576074531588e+01
6.094306546652333623e+01 5.286875145125205222e+01 5.414262761338552821e+01
4.569887742259663099e+01 5.424041491740332077e+01 6.225438820622864000e+01
5.093794693073436974e+01 5.740965555017941568e+01 3.462897733330419925e+01
4.441774470595946411e+01 4.044396169359477966e+01 4.739306066603528222e+01
4.526240831399748998e+01 5.586472420274184714e+01 4.936832697718180896e+01
4.661366551075176545e+01 5.938078473650695344e+01 5.797961007393479349e+01
4.010631237790277481e+01 5.157618805133679984e+01 6.099623437908229562e+01
4.480898459086687069e+01 3.415054005317080055e+01 4.922656673152931717e+01
3.899084852770509002e+01 5.807790434177010042e+01 5.269716495638984100e+01
4.410909912908645936e+01 4.841841389140441265e+01 4.849078331474229486e+01
6.172796218630711707e+01 3.441015666069881007e+01 5.034163260714225885e+01
5.003363960596559679e+01 4.476731015282001636e+01 5.394319909890226228e+01
3.494266889731530057e+01 5.543310219212551715e+01 5.468236402873488800e+01
5.299472743050850454e+01 4.163152852927645142e+01 6.110890065408345606e+01
4.612266213315634644e+01 4.257295828957368400e+01 3.359681329811260753e+01
3.713744274038142379e+01 3.508828077678268897e+01 5.226870542757104943e+01
5.576978845733965073e+01 3.478312869363098514e+01 4.283347177687701901e+01
6.516801832873160549e+01 4.197125127564203240e+01 4.955808414814038798e+01
5.084128273747771942e+01 5.278229034833213973e+01 5.734302457409997800e+01
4.281313065312895816e+01 5.095196370055037249e+01 5.804735478742182408e+01
4.771845762370355715e+01 4.613157082005442078e+01 6.845531757047528743e+01
5.755925353966602387e+01 5.052799614957601193e+01 4.020978181143867403e+01
4.195691292895785551e+01 5.912017733186846158e+01 3.580571344693741764e+01
4.147302594151111066e+01 5.502187161935984250e+01 5.104037193821784513e+01
5.836433272699170516e+01 5.654594273225437462e+01 5.456956205626632084e+01
5.156825580113317642e+01 3.649063117143044366e+01 4.975908488179513256e+01
3.380300088983540974e+01 4.090967845668708236e+01 5.599605577128978950e+01
4.839152024312308953e+01 4.736306801403106448e+01 6.497941267565693124e+01
5.147960604926296924e+01 3.931670449944108015e+01 6.523774197952111820e+01
5.404877792789613977e+01 5.311119886228878073e+01 6.562587165099795072e+01
3.586863328220078984e+01 4.799107295246163574e+01 6.307025997414606877e+01
3.473882867129876217e+01 4.243727687456677700e+01 4.144896252930846714e+01
6.329322593196441460e+01 5.731744354782688333e+01 5.608269368540605626e+01
3.988077682258620626e+01 4.264552536712002961e+01 6.148921755334746564e+01
5.357957352086012293e+01 4.189736877290288675e+01 5.139182176649106282e+01
5.306836076694456494e+01 3.690938703371531204e+01 4.175294620749555463e+01
6.007352515187213271e+01 5.580385457061011323e+01 5.081783062951758723e+01
6.005636331718441312e+01 6.092220475403139801e+01 3.911536059886989847e+01
5.857756816658255872e+01 4.845079659542589212e+01 4.506629933078764338e+01
4.029257647187228031e+01 5.069721640427640352e+01 3.971342765932669749e+01
6.364532361407982819e+01 6.041966568936041426e+01 5.980248382870225754e+01
4.644332577184137989e+01 3.689520723541955505e+01 6.304664576563565959e+01
3.419610993806272603e+01 5.984126446735898952e+01 4.690412838060458967e+01
5.925326605119833090e+01 5.642482322059225908e+01 6.437016103227463759e+01
6.065018222329163677e+01 3.868368741687731216e+01 5.194495036576992675e+01
4.861855811614961453e+01 5.027881659171998763e+01 5.979908720624226248e+01
4.972650607750226470e+01 6.882673463612213993e+01 4.508321367158239212e+01
5.043857136580578526e+01 5.077920901114035956e+01 3.478781452293782195e+01
6.369339364782196355e+01 4.886718509264886023e+01 4.527589420667125353e+01
6.066064600191025846e+01 4.749190884455119033e+01 3.660485765508031619e+01
5.991767758989241344e+01 5.561941766503959172e+01 6.166416530965121723e+01
5.361458284870494850e+01 5.365563772172961876e+01 5.304880536742444264e+01
6.180624402066254675e+01 4.464963471821461383e+01 3.526448335304327486e+01
3.824491692527634967e+01 3.593475881773701985e+01 5.117521690452604588e+01
5.362822847396599002e+01 4.605758389263274921e+01 5.354074379592997701e+01
4.231076149168232803e+01 6.120387985233104189e+01 4.637775301850488319e+01
4.833710570740843337e+01 4.668433964417965143e+01 4.207720318951692207e+01
3.499181380366385952e+01 5.775931551973213374e+01 4.402853656661442727e+01
5.479453218646583679e+01 4.274606213510450203e+01 5.234121404283113321e+01
3.854568462669577400e+01 6.323202646729411924e+01 5.041598416594186460e+01
4.223606636461951780e+01 5.992419273365668175e+01 6.397900931360621968e+01
5.157081202481461446e+01 4.015571397921166152e+01 6.648461631907596825e+01
3.937362890712755359e+01 5.447463978851639865e+01 6.143172056338391940e+01
3.976679196796577287e+01 5.280730460994011821e+01 5.009440299886260561e+01
4.338671828811841635e+01 3.178878678857785900e+01 4.689520165762679227e+01
3.580854615907487215e+01 5.013287193616599069e+01 6.122892733877638705e+01
3.452213150100376993e+01 4.713651568779923196e+01 5.579613208988723727e+01
4.197176843259128276e+01 5.076865558561927116e+01 5.670148998694654097e+01
3.600515293660265570e+01 4.148170188088137422e+01 5.774441301758871248e+01
4.521741160057707276e+01 5.574867390381182730e+01 3.203579118362481637e+01
5.299357220167586746e+01 5.883421647940263455e+01 6.668888512413673197e+01
6.510319831845072258e+01 4.780151333811731007e+01 3.742965907764662603e+01
5.049880408642669494e+01 6.002304921851472130e+01 4.844082096566789630e+01
6.246190740704285105e+01 6.410429082987148774e+01 4.911892707261259261e+01
5.862733779310379845e+01 5.568787062839042079e+01 5.302092356682567242e+01
4.173375509986673393e+01 4.885723014020339861e+01 5.387446984722976850e+01
3.906565831820041268e+01 6.467009296652315697e+01 4.413349350606898724e+01
5.405056231891479968e+01 5.175417699424974671e+01 5.427414105999700666e+01
6.193815265760078859e+01 3.759514860149754156e+01 5.150208928084929738e+01
4.988450799695209525e+01 5.444088927924241261e+01 3.154586958712817335e+01
5.261247835087381475e+01 6.283441177473994088e+01 4.030241291764561140e+01
5.862137727906929996e+01 4.840743871818030897e+01 3.973285370867255750e+01
4.396401144655618509e+01 4.468579031702387994e+01 6.526135360698420129e+01
5.244455641770918675e+01 5.148171974803747020e+01 6.484248808524021968e+01
5.799212258172684642e+01 4.073513360289757657e+01 6.063150978328187790e+01
3.395029502086692474e+01 4.946832291542823157e+01 4.722754080834232582e+01
5.766975060407375508e+01 4.298248439191304726e+01 6.146950059327600258e+01
5.149874862766269246e+01 3.379536184297749912e+01 5.317698213134157470e+01
4.587591266399977030e+01 4.970915866243685599e+01 4.738582836925739628e+01
3.576881221801896515e+01 4.922786002568467723e+01 3.752338004881423927e+01
5.498423016218728776e+01 3.289411517991186429e+01 5.614002543379121590e+01
5.760406710466153868e+01 5.562772030503165865e+01 5.501492661270523143e+01
6.116660986138197131e+01 5.464869653451172837e+01 4.534690853540218569e+01
4.919837938087370333e+01 5.480984464983392712e+01 5.677057002812495767e+01
5.542808276584617744e+01 3.291468413066012033e+01 4.146475936898889358e+01
5.253442642977679355e+01 6.042961969203756212e+01 3.703057218789299299e+01
5.254205884372894531e+01 5.145188962269606492e+01 6.035355599840774943e+01
6.216329772109522622e+01 4.358773982819366211e+01 4.774042631669557579e+01
6.128473465858030522e+01 4.834633085489764426e+01 4.281949209584927729e+01
4.705351153019502419e+01 6.262100484047312676e+01 6.178050208578268609e+01
6.213021338946306571e+01 5.219115982458711755e+01 5.465693992508824550e+01
6.919730830418315293e+01 4.843842627089416197e+01 5.196847133631453630e+01
3.828868615218081572e+01 4.939985632430218487e+01 4.191953517250468764e+01
4.291286094463600165e+01 3.370635009704482599e+01 4.328597355172826155e+01
5.987904741838188016e+01 3.520447551923368223e+01 4.812085445915138848e+01
5.483497027028766269e+01 6.253607561966136075e+01 6.352510241213347086e+01
3.273754491789312482e+01 4.038130190807448372e+01 4.748235100827030664e+01
6.008313086024007532e+01 5.085545140292049382e+01 6.540232280667900966e+01
4.893146395486267863e+01 6.038208930520850970e+01 5.320333028435275935e+01
5.347454544958944922e+01 5.875447163011704532e+01 4.362666148231265595e+01
4.801207110996631400e+01 4.415864458702872497e+01 6.835996430226910547e+01
5.419236638228124292e+01 5.107559404045384355e+01 4.483788518699497416e+01
5.880944548894393620e+01 3.949501928992652466e+01 5.839274749340027881e+01
5.211126110886484497e+01 5.638030952113758332e+01 5.232918454179377221e+01
6.141598209808071118e+01 4.584024596200326584e+01 6.306098706689453337e+01
4.351712332119343074e+01 5.624668293261495222e+01 6.423892071391310310e+01
6.122730408400898483e+01 4.541974295979005660e+01 6.018311705386353339e+01
5.503667373882764480e+01 3.585479263049007415e+01 5.923887027635949920e+01
5.056136921292827680e+01 4.624781555504481645e+01 5.488078516071593072e+01
4.695520499528379332e+01 3.922206815193086982e+01 3.502626598640213729e+01
4.127277262699941218e+01 3.378541382181639108e+01 4.947267472087244755e+01
4.946769796941462261e+01 5.086219659116012792e+01 6.305831363144574908e+01
5.671526100006587257e+01 4.608744276124220107e+01 5.200152394548774737e+01
5.819959376547205920e+01 5.321947807654360219e+01 5.994694907637341430e+01
6.235980938491206871e+01 5.281357912926293352e+01 5.397603666378692111e+01
4.683131108948672505e+01 4.773420991873297226e+01 6.547289059909203957e+01
6.485355718395440761e+01 5.255292606788187726e+01 4.561082374412237783e+01
4.068113265807544821e+01 6.752475961880797684e+01 4.802970730261695564e+01
4.624215887709540596e+01 3.384283175602897842e+01 5.063410213493767742e+01
4.246917302333606159e+01 6.435857555031066113e+01 4.746098851614305403e+01
4.996945801695253664e+01 3.587165131502909787e+01 4.250001457326412435e+01
5.614330285164744794e+01 4.764214959196366550e+01 4.782009113440963688e+01
5.542802128317097043e+01 3.248219995895654932e+01 5.774046366879252901e+01
4.773633797194364092e+01 6.656887593827714511e+01 4.104103418434389283e+01
5.615036532414624304e+01 3.846600339303230243e+01 6.483754796891911099e+01
5.564779320667696538e+01 3.952538265300965747e+01 5.537316607640133981e+01
5.997077944773143798e+01 5.273582013276738678e+01 6.125419230841594498e+01
5.158868121618019131e+01 5.010420163339255595e+01 4.411730797726776387e+01
6.414809442572112630e+01 5.185809623161388515e+01 4.754663108324547238e+01
3.310100340177278611e+01 4.493410535624596491e+01 4.558845876742496728e+01
4.761434752998985687e+01 5.815194212488619030e+01 3.293824845231853260e+01
4.264912750208645775e+01 5.854010587947092858e+01 5.497825105674471047e+01
4.890585064374182167e+01 6.314406213017392844e+01 4.023692198601418113e+01
6.414989007168082935e+01 5.796397869472893660e+01 4.234946149058621501e+01
3.829477459252690608e+01 5.557805336704709021e+01 5.110971651533732540e+01
4.294838119234722029e+01 6.607830811140780725e+01 5.554031158572909987e+01
4.614791861909412063e+01 4.187039487914990588e+01 3.756113144203383314e+01
5.781923352566534646e+01 3.575873927473715952e+01 5.896546609695039365e+01
4.938232551040995588e+01 6.544195352673374089e+01 5.590395924710770714e+01
4.212504078256965556e+01 4.138632770136953809e+01 3.512608565269188432e+01
4.385876392251708467e+01 6.172587924330310472e+01 3.574910217906536047e+01
5.771810351737153155e+01 3.703097848958661586e+01 6.249971906848738001e+01
4.326740012371449495e+01 5.221322469782697340e+01 5.645902679811467806e+01
4.815116842104050221e+01 3.850745901797205306e+01 5.184828865153966149e+01
3.635186946652228812e+01 4.029372970224503092e+01 4.561835245575922215e+01
4.216906905523174487e+01 5.928323539493437266e+01 4.555642383897048120e+01
4.320444622194208506e+01 5.060479264858444992e+01 4.758623493653391279e+01
3.645399169049494503e+01 6.088477132294678285e+01 4.721036297605958509e+01
5.459151849440983284e+01 6.711742685033293299e+01 4.153820802127852119e+01
5.502217114737854331e+01 4.223191763636842921e+01 4.464011067527329146e+01
3.927075678365273603e+01 5.509228538167478462e+01 4.780166981647976598e+01
4.752207384191238049e+01 4.082062850921527541e+01 3.803801259623176634e+01
4.010420006836892526e+01 6.630697233912414390e+01 5.355381981946265313e+01
4.067586647821526924e+01 3.762751198224776061e+01 4.257926968112131050e+01
3.321605325599985292e+01 4.403218701016412240e+01 4.278555433374535966e+01
6.525325815193775725e+01 5.255221128859639634e+01 3.991421364293275786e+01
5.985452929081229456e+01 5.702331586546621622e+01 4.833730042535579230e+01
4.993641315341699993e+01 4.403428172492491655e+01 3.297696723282984266e+01
4.953827477885107555e+01 4.239940839791841398e+01 5.723874072298712434e+01
5.908647593192176828e+01 3.566388445170386490e+01 4.142570214329390410e+01
4.517809549565957639e+01 4.856768734806971111e+01 5.400580888346750186e+01
3.839835704940220040e+01 5.902287104983081889e+01 5.935749186220987639e+01
3.202640599236107022e+01 4.818009458887133434e+01 5.770804370187781274e+01
4.369654434679753052e+01 4.574061026860718471e+01 6.830142276800246748e+01
6.606211301263090263e+01 4.966809289815005002e+01 5.845292411882434180e+01
3.316523762273590137e+01 5.101108200545036908e+01 4.965557934588566980e+01
5.533904286754417257e+01 4.411260656939411007e+01 3.229873192557566597e+01
6.305021044971682898e+01 4.309039822501141970e+01 5.238850010045668171e+01
6.215504175435757617e+01 5.244605032565603153e+01 3.532402172109813421e+01
5.520503602110117214e+01 4.825340890079014144e+01 4.264854060380681489e+01
4.841926931519970623e+01 5.670992588139309731e+01 5.325481664431202944e+01
6.691136484554380104e+01 5.451988606585879893e+01 5.855552076500114822e+01
5.018391384413514089e+01 4.834879586119512851e+01 6.542497142499563267e+01
5.965184980995218211e+01 5.371004471736912933e+01 3.636041136548580965e+01
4.489082216320110774e+01 5.064721734440828982e+01 4.618960431941054878e+01
4.278681777849032386e+01 3.976045239924344799e+01 4.279656595054902368e+01
6.320155225123853882e+01 3.537009370186719082e+01 4.837683038144565728e+01
5.002116747142802922e+01 6.013850852115803747e+01 4.691044833254463953e+01
5.631663472412657967e+01 5.324249705878746397e+01 4.525409630007256823e+01
5.938313719427738846e+01 3.760709074924722017e+01 5.683551404720336109e+01
5.177000822940544822e+01 3.732993424774172553e+01 3.627121256710027808e+01
4.811081591488753872e+01 6.312274170404555207e+01 5.122045434509098527e+01
4.873347056207264671e+01 4.914848585348655519e+01 3.873512863011345786e+01
4.394163643537743980e+01 5.301633954458974074e+01 4.383977391646225641e+01
4.348482536836680623e+01 4.082594343855232921e+01 5.866380401141434220e+01
6.459002669489940729e+01 4.450133672926664730e+01 5.050032641715746706e+01
5.271477602462210399e+01 5.552901246919419265e+01 4.193089226725310681e+01
6.702481282192478318e+01 5.272283907009101966e+01 4.279010164705784547e+01
3.746028109976863618e+01 3.928882323819166089e+01 5.159208328529700793e+01
3.967256951648479202e+01 4.878009162755283512e+01 3.532228142775812785e+01
5.807859976864199325e+01 6.182821217936464109e+01 5.921200376966756806e+01
3.755116470220963976e+01 4.698333097136934100e+01 5.546604761263188266e+01
5.539073923880572181e+01 4.351373536883777859e+01 6.690858275181938097e+01
4.718836497765859406e+01 5.244657904483936761e+01 5.132903894724971394e+01
4.391237276012203949e+01 3.971332501478082833e+01 4.813577418999139468e+01
4.611763230606255348e+01 4.788834373743022610e+01 4.713172846533502280e+01
5.293796522855418374e+01 6.334604018031983230e+01 5.576464736739745831e+01
4.468620272613993194e+01 6.544598567906049880e+01 4.985826782552324943e+01
5.283837262464771101e+01 3.703936332668021691e+01 4.365587995075159711e+01
3.498916550942951176e+01 4.883513082741067990e+01 3.996018872187746496e+01
5.701726889616273297e+01 5.629281655475016777e+01 4.373580211372721749e+01
4.805188501143464919e+01 6.259853136668102991e+01 5.394765764937605468e+01
5.515911041466934250e+01 6.742754178440154078e+01 4.433025700723032259e+01
4.581544544256852447e+01 6.494600743913618146e+01 5.221744383642160869e+01
4.896194216381193343e+01 5.092654545676316502e+01 6.570684499081413321e+01
5.956103616260794098e+01 4.769920212511947000e+01 6.183446991358222533e+01
5.369212015019729733e+01 6.026245150274380791e+01 4.197289703254681825e+01
4.241935650507505784e+01 6.608099203292317725e+01 4.386501562260275477e+01
4.904731977410202859e+01 5.489390300195282890e+01 5.769479868376337350e+01
5.545472714981281825e+01 6.326983835001379930e+01 4.234665258947125466e+01
4.631740537675974423e+01 6.405722065374196461e+01 5.367514056188631599e+01
6.087040090920999802e+01 5.602090541820475522e+01 4.009833639806596750e+01
6.554972127830509976e+01 4.401803932350141224e+01 4.025287623864585385e+01
3.640175966444027011e+01 4.617627699627935556e+01 5.678958976251171720e+01
6.179403356624704458e+01 4.179144430303616531e+01 5.353869272087676023e+01
5.789455033880720691e+01 6.175574553333413519e+01 5.133166367768755833e+01
6.230230099294383450e+01 6.119905195206876414e+01 5.524256239985065520e+01
4.125458578775499063e+01 4.513427857032211676e+01 3.975076567804713790e+01
5.686908000406612018e+01 3.849035754980543089e+01 4.145559003742953763e+01
4.419331004621010806e+01 5.892134959661170512e+01 6.618984213389687454e+01
4.549787453100358903e+01 4.912740253474630947e+01 4.244578474668484347e+01
4.854375911268239463e+01 4.887340043384662636e+01 6.548523014279265908e+01
4.563596815123445083e+01 5.737806753722330910e+01 5.939608640819723462e+01
6.967852629413096111e+01 5.049164770777322531e+01 4.924312729934893440e+01
3.416738438626706653e+01 4.641473682307001525e+01 5.673347981591115996e+01
6.730905977126407436e+01 4.752068579890627831e+01 5.510905760116613550e+01
4.479359426027919255e+01 3.854354952831786818e+01 5.723228502677159213e+01
5.329221822909853046e+01 6.341411716617054850e+01 6.109315834212249996e+01
6.249051831635521381e+01 6.426783432170887522e+01 5.275550754416988752e+01
5.549202761006870332e+01 6.043701936578944611e+01 4.327364167912585913e+01
3.792995910072195187e+01 5.569480199212500793e+01 5.097517782960506594e+01
5.902605966358335365e+01 4.644782496388714321e+01 3.411365984031567677e+01
5.746448725211578079e+01 5.664580287377917500e+01 4.804407864335088618e+01
3.107455717498633874e+01 4.630307338008652351e+01 5.212207649812976484e+01
4.807993896113015353e+01 6.619840760891693776e+01 5.067012017300206139e+01
5.714414956176037208e+01 5.892022102653328375e+01 6.524477156120775589e+01
3.928426061607189013e+01 5.520095319941429324e+01 4.014115438245013934e+01
4.605165340344923663e+01 5.622876712267370891e+01 5.082938567721455314e+01
6.357502924630514940e+01 4.293331147992830665e+01 3.762509382375244371e+01
5.935661848312582123e+01 5.194030244696745768e+01 3.439588961104819020e+01
3.881432003090661453e+01 5.917298966945016048e+01 5.464575755907925725e+01
5.631977150531328391e+01 5.082845983344097363e+01 6.459453332392975256e+01
3.318790842007302189e+01 5.700423813325423339e+01 5.001768129472774405e+01
4.116632380418869985e+01 6.286734471134364099e+01 5.425392596884383067e+01
3.782855500277830885e+01 5.872928049798768768e+01 5.858811027839253427e+01
5.573364751398896288e+01 6.263036314879152400e+01 4.254364312933740422e+01
6.496401193905198568e+01 5.677443826386065240e+01 5.280885621634354976e+01
4.260647908698818043e+01 5.938046998188087855e+01 5.654121671761585333e+01
6.123181020338572722e+01 4.444204497872853210e+01 4.772407252124069288e+01
6.034392701880795329e+01 5.331917769679216690e+01 5.399419098257594385e+01
5.921947956763170851e+01 4.555966058163279797e+01 3.430544497234675561e+01
3.652461579532880620e+01 4.333106940317352951e+01 4.077895489434474285e+01
4.604172702241877602e+01 3.894927175364150429e+01 5.348121595686703245e+01
5.121782007282445903e+01 3.717067388887789292e+01 4.917323023070709098e+01
5.993274497654190469e+01 6.035852921942810667e+01 3.845364659513543870e+01
5.753279759336278687e+01 3.279459922023882967e+01 4.994002514491623401e+01
4.432380305989007496e+01 3.175673972022041625e+01 4.486638876378440699e+01
5.344126097626201499e+01 4.222967124336491906e+01 5.234433743795119653e+01
4.870704109643242674e+01 4.672222938294537897e+01 4.628891961495775575e+01
6.275006621716804034e+01 4.370100455130598505e+01 5.047140363147010333e+01
3.908747511173692146e+01 4.355145632745666262e+01 5.269573748010350300e+01
4.761572486311784758e+01 5.409225297066016225e+01 5.027688087114687931e+01
5.507984221067246011e+01 5.942062185856635637e+01 4.649699954941354463e+01
3.763951983611681840e+01 5.472507344826663456e+01 4.227548550872164412e+01
4.834254933549861022e+01 6.403695965448875427e+01 4.698670740468369189e+01
5.690928802383930218e+01 3.418591054292969744e+01 5.322654972137216589e+01
3.508911571419523057e+01 5.950708128300286859e+01 5.245342622318781878e+01
5.988865968015957009e+01 4.002706544402483502e+01 6.121877484434773464e+01
4.646643927465417789e+01 5.136269863780357525e+01 5.297819710832272477e+01
5.104882707441772283e+01 5.631470530337296054e+01 6.147634941877301173e+01
4.813608537658657838e+01 3.357187613181983465e+01 5.951182298106692770e+01
4.910901923119228485e+01 6.640721289497523117e+01 5.475789802500992920e+01
4.676003890640865279e+01 6.016030461399517293e+01 3.391031659324173120e+01
6.132963301713327553e+01 4.066469658033278023e+01 5.991498542725865661e+01
5.133158136983399800e+01 4.514804080995610036e+01 3.799487743363722814e+01
6.103010657305634368e+01 4.601200027794495639e+01 3.444858651441322905e+01
5.938879914493413281e+01 6.507105111379286200e+01 4.614896102236806996e+01
5.690909447687004530e+01 3.469211569116864524e+01 5.341276131367528279e+01
5.786988366373704196e+01 4.421576874450833117e+01 4.736109472110842944e+01
5.302970973597251003e+01 4.115728783777267097e+01 3.938639565381433272e+01
4.014060492387312706e+01 4.014242431842616554e+01 6.427227364098376938e+01
4.568699922824397675e+01 5.109986498797101007e+01 3.385815798379103825e+01
5.142241204669583965e+01 5.301455477432591579e+01 4.015149578535856278e+01
6.329402863577684712e+01 5.600718169381012501e+01 4.456464800153684536e+01
4.860849839922268956e+01 4.378234607355380348e+01 4.910531877662322131e+01
5.966110129063639533e+01 4.390238997227018558e+01 4.857863158707517925e+01
5.191220042274821367e+01 5.030325424241035392e+01 3.581768938023864024e+01
5.205818091996485464e+01 5.785328102601121714e+01 3.874564836715389760e+01
4.681456027982363821e+01 6.520672855834465054e+01 3.757045564622995215e+01
5.057911963694485991e+01 4.185516027748350609e+01 6.081771807076026448e+01
5.388785951624549853e+01 6.646618316846468133e+01 4.619660085837656993e+01
4.985684182188466451e+01 3.409232052465362983e+01 4.238642656930510100e+01
5.279973393876639420e+01 3.472924876392864491e+01 6.076699684242131383e+01
5.960821956812439026e+01 3.851165423302101942e+01 4.364579195820388691e+01
3.978412023309755341e+01 4.433001245149075231e+01 5.989252180527926583e+01
3.550389359892450614e+01 5.933425526425860852e+01 5.442947324911102669e+01
4.300927195240183210e+01 3.957840371055559814e+01 5.569509237992127737e+01
5.199727906082739537e+01 4.383713698149463767e+01 6.717090346746149976e+01
5.403603244124733607e+01 6.463793541401513210e+01 5.308981472917926681e+01
3.428154192357936125e+01 4.886429695681498941e+01 4.258502192172336720e+01
6.097689459694816350e+01 5.027382106783858973e+01 5.798894977538371620e+01
6.594256812235371967e+01 4.280030646623621493e+01 4.121563034486640476e+01
6.010791377217518061e+01 3.436153538682074071e+01 4.614941805695767840e+01
5.453272703244286390e+01 4.351048600078470940e+01 5.910506339373873175e+01
5.115961140359659254e+01 5.324684533405158504e+01 5.834361972961432485e+01
3.884122604434140413e+01 6.302728680677156348e+01 5.222115803087918096e+01
4.491447222339375145e+01 3.447677431531928249e+01 4.832433431314932903e+01
4.963824939587318141e+01 6.324257906767335413e+01 3.757455666619524948e+01
6.243124474928628587e+01 5.154858710509657982e+01 6.406802944210893713e+01
5.793587602678863391e+01 5.521754584014345824e+01 6.651144180828144670e+01
4.382916722947730648e+01 4.171261032161817894e+01 4.619495231040050243e+01
4.382777989281790099e+01 4.680914244771784638e+01 5.920364100757105064e+01
4.694514764629295911e+01 4.931989638801879039e+01 4.014952529729135478e+01
6.059678374867119288e+01 5.631020364096156783e+01 6.338172247636482126e+01
3.667064897691286518e+01 5.532613214733954976e+01 4.395054438562646482e+01
5.546471814975279102e+01 4.707226032745646904e+01 3.595290416268963440e+01
4.040776503635206041e+01 5.890580639885788372e+01 4.490283061003628973e+01
5.543986173048553212e+01 6.053627600324414715e+01 6.222366152936610462e+01
6.527936677472860083e+01 5.915500439309268188e+01 4.445826125145025998e+01
5.145772620004463249e+01 6.284688693932041303e+01 6.324875774367060188e+01
6.036218789577342392e+01 3.931141558821816773e+01 4.249519547247722073e+01
3.840699638992184362e+01 3.469190291569629636e+01 4.966447221338786733e+01
5.598196796645409279e+01 5.351304704990263161e+01 5.057282309679528254e+01
3.733438236967724322e+01 6.326662332478265682e+01 5.427748009329851442e+01
5.837133109549195353e+01 5.112422933776061029e+01 4.878523399863400556e+01
3.616545306387926928e+01 5.152864807625472565e+01 5.259147553799298436e+01
3.824898773141474351e+01 5.243558282775703105e+01 3.676349152122101316e+01
5.983695995599739348e+01 3.683014737279619766e+01 5.301485684777878760e+01
4.776608179894598294e+01 6.028842229640697070e+01 5.959742265053503729e+01
4.689069653182988162e+01 3.187200826525098307e+01 5.781159577530451088e+01
5.810777332568489584e+01 5.674820904623213380e+01 5.969554674181971876e+01
5.532379872707481638e+01 5.294433813130842026e+01 5.027571031884718877e+01
3.883449691160866024e+01 4.089100667902676634e+01 4.537713113557013855e+01
3.778913007280525704e+01 5.628440562982756035e+01 4.787490724253882490e+01
6.335199292789936720e+01 5.819341987205886113e+01 5.287804736863128596e+01
5.116306971271157522e+01 5.094943380339701378e+01 5.965648933172159474e+01
3.663503235910524580e+01 5.105918005605700927e+01 3.677956502117035598e+01
6.549117342016472776e+01 5.840500536528320197e+01 5.849668870303391799e+01
4.762352240147671267e+01 4.619629533177040059e+01 6.550358300940966672e+01
3.979249142796863481e+01 6.371659427993928659e+01 5.691825829582578677e+01
5.010844449021558944e+01 6.010160843322458391e+01 5.188068058228214596e+01
5.704385202743311822e+01 5.476122824805723610e+01 3.652742314278653879e+01
4.686104514563819379e+01 5.073892972795427170e+01 6.867372796858256834e+01
5.948387282570500645e+01 3.270774935130993555e+01 5.307004690739464081e+01
6.193069093356344013e+01 5.556168666374642129e+01 4.401123939410280883e+01
5.884431476378551906e+01 3.765273791889774913e+01 5.283430463427257706e+01
5.898541117477109452e+01 4.476470389233489300e+01 6.700867891640022833e+01
4.893546038756063865e+01 6.624518419379560896e+01 4.433452970979999463e+01
4.919790802577250588e+01 3.834709941416674184e+01 5.750679824454832101e+01
4.953411705142439558e+01 4.655984395692907185e+01 3.982303088898279242e+01
5.233182283167281668e+01 6.102294180911088972e+01 5.720708559186675757e+01
5.496388527067996677e+01 4.504124338267740768e+01 6.241750679012746161e+01
5.046607746953558404e+01 3.953042594136814358e+01 5.925462361440817460e+01
5.270690025010689084e+01 5.197024985126395080e+01 5.870762988009591510e+01
3.624191703700139300e+01 4.177726693261102042e+01 4.491967500817855807e+01
